ply
format ascii 1.0
comment PCL generated
element vertex 1261
property float x
property float y
property float z
property uchar red
property uchar green
property uchar blue
element camera 0
property float view_px
property float view_py
property float view_pz
property float x_axisx
property float x_axisy
property float x_axisz
property float y_axisx
property float y_axisy
property float y_axisz
property float z_axisx
property float z_axisy
property float z_axisz
property float focal
property float scalex
property float scaley
property float centerx
property float centery
property int viewportx
property int viewporty
property float k1
property float k2
end_header
-51.399059 151.47952 423.5 115 81 86
-50.864864 153.08882 423.16669 124 93 99
-49.084892 153.92146 423.25 116 86 89
-47.752941 156.3109 423.60001 131 97 101
-46.356159 159.07747 423.33334 159 126 127
-44.045731 160.75928 423.60001 152 120 124
-42.997532 162.72299 423.5 156 130 132
-95.599182 113.82628 425 192 190 186
-93.836716 113.94511 425.44446 194 189 187
-91.349854 114.0941 426 193 188 183
-88.910751 114.10087 426.375 192 186 182
-87.453232 113.98818 427 193 181 175
-95.227203 115.31419 425 189 186 189
-93.646278 115.96516 425 188 178 176
-91.241898 116.1944 425.5 191 185 178
-88.685936 116.20906 426.10001 195 182 178
-87.132896 116.39075 427.00003 189 160 163
-92.995323 117.54609 425 192 175 172
-91.103378 118.64331 425.20001 194 177 172
-88.739853 118.56837 426 197 182 174
-87.079498 118.8467 427 191 156 155
-90.20546 121.07991 425 196 174 171
-88.704849 121.13068 425.83334 197 180 173
-86.71907 121.15299 426.70001 188 166 169
-90.33831 123.71036 425.00003 194 185 183
-88.7304 123.82092 425.60001 194 191 184
-86.467697 123.81943 426.75 189 188 183
-90.01947 126.47363 425 195 193 188
-88.656006 126.27915 425.60001 195 193 188
-86.280838 126.24739 426.75 193 193 188
-90.01947 127.96156 425 197 194 189
-88.498459 128.61676 425.20001 196 194 188
-86.257751 128.64108 426.26669 194 189 187
-84.463371 128.56372 427 195 191 186
-88.035568 130.44144 425 196 195 189
-86.099625 131.26183 425.73337 194 192 189
-84.214226 131.429 427 196 190 186
-85.819756 133.77188 425.46155 191 179 186
-83.676605 134.09944 426.45456 195 172 173
-81.660385 134.35657 427 191 178 177
-79.9786 134.54343 427 198 189 185
-85.011284 135.71976 426 194 159 166
-83.589874 136.33699 425.60001 190 169 166
-81.330421 136.17183 426.25 192 171 176
-79.04464 136.31723 426.61539 192 179 180
-76.988739 136.78583 427 203 186 180
-83.1082 138.18303 425.16669 187 186 183
-81.093513 138.7655 425.36365 190 187 183
-78.658974 138.67876 425.92859 196 184 180
-76.152008 138.49127 426.5 190 189 182
-73.679817 138.871 426.72729 183 187 185
-71.108459 139.00478 426.70001 183 184 179
-68.819595 139.03981 426.75 183 185 175
-66.89798 139.77568 427 168 162 174
-80.595947 140.85692 425 174 178 177
-78.639633 140.96921 425.27274 175 174 169
-76.217468 141.12112 425.20001 178 172 161
-73.738945 141.1459 425.5 178 166 165
-71.234039 141.12686 425.66669 180 164 158
-68.707664 141.37296 425.9231 180 171 162
-66.243675 141.50156 426.57144 177 171 165
-64.28186 142.01807 427 184 181 168
-78.116066 142.84082 425 179 174 160
-73.65229 142.84082 425 181 177 160
-71.048431 142.84082 425 187 176 147
-68.856575 143.29681 425.25 186 163 139
-66.17205 143.67125 425.70001 196 186 175
-63.790344 143.78133 426.21429 196 191 184
-61.492737 144.02298 426.66669 197 196 189
-59.797081 144.26045 427 183 182 189
-65.840683 145.07269 425 206 196 191
-63.633301 145.37758 425.16669 176 160 156
-61.260612 146.23384 425.8125 144 120 121
-58.95348 146.37883 426.30771 130 108 108
-57.419899 146.90547 426 106 75 70
-60.63295 148.04855 425 122 94 93
-58.841309 147.84987 425.5 115 82 80
-56.236565 148.22185 425.5 110 78 75
-53.541847 148.76852 426 102 74 73
-51.390965 149.41634 426.25 98 68 69
-49.962769 149.88832 426 94 66 66
-52.821342 150.28043 425 109 78 79
-51.10527 150.83534 425.16669 105 72 74
-49.550823 151.01157 425.66669 98 69 69
-48.663902 153.58379 425.90912 106 77 78
-46.716469 154.35121 427 102 73 72
-47.669617 155.29823 425.5 112 81 83
-46.272083 156.22815 425.72729 114 79 82
-44.742783 156.9726 426 112 75 80
-46.050156 158.3575 425.28574 134 100 102
-43.810848 158.92171 425.30771 124 88 95
-42.157879 159.45596 425 118 81 90
-43.149834 161.43988 425 142 107 117
-42.405865 161.43988 425 135 97 112
-86.429886 114.49041 428.60001 192 177 175
-86.002571 116.09842 428.28574 195 169 169
-84.608673 116.90014 429 201 172 170
-85.785004 118.75043 428 194 178 171
-84.508896 118.82697 428.85715 195 177 175
-85.4104 121.37268 428 194 182 179
-84.345093 121.32016 428.57144 195 188 183
-85.4104 123.62032 428 192 192 185
-84.483513 123.90914 429 192 192 187
-84.335594 126.31587 428.25 196 192 189
-83.471283 128.95912 428.625 196 192 185
-83.217773 130.98567 428.28574 197 187 185
-81.478531 131.65262 428.71429 196 189 183
-79.226746 132.16975 429 192 176 178
-83.162766 132.98549 428 194 187 182
-81.187561 133.29199 428 194 187 181
-78.713135 133.81232 428.25 184 177 184
-76.973854 134.04716 429 195 191 186
-77.918251 135.98233 428 193 179 177
-76.227142 136.06622 428.53848 195 192 187
-73.768211 136.70006 428.55557 191 191 187
-71.137604 136.5209 428.77777 193 189 183
-68.672989 137.34642 428.75 177 184 178
-73.797577 137.85538 428 187 192 187
-71.175339 137.85538 428 184 189 186
-68.541527 138.13406 428.39999 186 188 184
-66.301147 138.87848 428.63638 180 183 183
-65.431358 140.35277 428 163 158 168
-63.742352 141.35851 428.39999 171 172 164
-61.357128 141.76636 428.5 181 180 167
-59.187908 142.35068 428 182 183 181
-62.933983 143.09988 428 188 189 179
-61.248249 143.28719 428 187 190 181
-58.748058 143.87231 428.27274 180 183 186
-58.251389 145.53484 428 180 188 187
-56.391609 146.55487 428.71429 154 141 137
-55.976994 148.23735 428.00003 105 74 70
-54.130714 147.78247 428 99 72 65
-85.433151 114.41268 430 191 173 176
-83.615555 114.50137 430.33334 198 184 182
-81.245529 114.87831 431.75 192 192 188
-85.056793 115.54175 430 195 171 166
-83.482948 116.19182 430 198 184 178
-81.406143 116.2199 431.39999 195 190 187
-83.175011 118.92898 430 193 187 181
-81.265724 118.74519 431.28574 194 192 189
-79.402687 118.72593 432 194 191 190
-83.271286 121.32803 430.5 194 191 185
-81.206818 121.19271 431.72729 194 193 189
-83.311302 123.78337 430.42859 194 191 187
-81.179451 123.65953 431.80002 195 192 189
-83.176262 126.32435 430.28574 195 192 190
-81.229774 126.19049 431.66669 194 193 190
-82.79866 128.71428 430 196 193 190
-81.217361 128.6201 431.20001 195 192 190
-79.402687 129.31294 432 194 194 191
-80.942886 130.67159 430.42859 197 188 185
-78.946281 131.43916 430.63638 194 192 185
-76.4776 132.37282 431.5 196 193 191
-73.569023 132.01373 432.00003 196 193 188
-77.529648 133.23055 430 196 192 184
-75.851494 133.70242 430.44446 195 193 186
-73.751808 133.84659 431.61539 195 192 188
-70.810654 134.58896 430.33334 196 193 185
-75.2715 135.48871 430 192 192 186
-73.572067 135.4677 430.33334 192 192 185
-71.267456 135.75522 430.25 194 191 182
-68.873428 136.24142 430 190 189 178
-64.48259 139.00139 430 178 188 180
-63.228062 140.75772 430 162 154 161
-80.344444 116.72684 433 194 187 188
-79.329163 116.14772 433.66669 193 189 188
-80.530006 117.75613 434 195 190 188
-79.329163 118.55087 433.66669 193 190 189
-79.257385 121.21763 433.57144 193 192 190
-79.268188 123.64366 433.33334 194 194 189
-79.339661 126.16355 433.42859 195 193 188
-78.964615 128.88779 433.75 195 193 190
-77.491135 129.91161 434 196 194 191
-78.600662 131.38028 433.83334 195 194 190
-76.292923 131.32951 433.66669 196 193 189
-78.050415 116.50452 435 195 190 187
-76.355064 116.43951 435.57144 195 191 187
-74.966911 116.6577 437 196 192 188
-78.050415 118.78893 435 193 191 188
-76.356461 118.73484 436.20001 194 191 188
-74.775673 118.37888 437 194 191 188
-78.139694 121.21251 435.5 194 191 189
-76.349808 121.36584 436.60001 195 191 189
-74.966911 121.24752 437 194 191 189
-78.181328 123.69684 435.42859 193 193 189
-76.496864 123.9249 437 193 192 189
-78.021538 126.22707 435.14288 195 193 188
-76.544281 126.27496 436.39999 195 192 188
-77.974266 128.53572 435 194 194 190
-76.224159 128.81911 435.44446 195 193 189
-76.146759 130.21097 435 196 194 189
-74.172195 116.88556 438.33334 195 192 188
-73.834343 118.92523 438.71429 194 191 187
-74.100723 121.32629 438.66669 192 191 189
-75.138474 124.20849 438 195 193 188
-74.54155 123.7236 439 194 192 189
14.600921 124.10783 439 183 176 176
16.137861 124.10784 439 178 169 171
18.722715 123.79346 439 191 178 173
21.132914 124.49207 439 182 159 167
14.293533 126.1827 439 169 171 181
16.137861 126.02901 439 185 180 177
18.827503 126.02901 439 189 183 184
21.297586 126.02901 439.00003 192 185 184
16.137861 127.56595 439 190 191 187
19.093513 128.62999 439.00003 192 191 187
21.132914 127.56595 439 194 192 186
-72.868073 117.20648 440.5 194 192 186
-71.407272 117.33952 441 194 192 186
13.89547 117.33952 441 185 179 177
16.211382 117.33952 441 184 181 175
18.527294 117.33952 441 191 186 180
21.229191 117.33952 441 188 185 184
-72.868073 118.36312 440.5 193 192 186
-71.149086 118.91083 441.36365 193 192 187
-69.480148 118.53406 442 192 188 186
9.0912228 119.34646 442 193 190 185
11.287343 118.75345 441.66669 185 178 170
13.891774 118.85331 440.88889 177 174 166
16.211382 118.88346 441 170 176 171
18.522821 118.85331 440.88889 189 183 182
21.220875 118.83824 440.83334 187 183 185
23.953846 118.60863 441.41669 192 188 184
26.145994 118.89379 441.89999 192 189 185
27.853956 119.15303 442 193 189 187
-72.911339 121.2624 440.42859 193 192 188
-71.258705 121.34335 441.875 194 191 187
6.9634891 122.24792 442 181 174 184
8.6050205 121.53635 441.875 185 182 185
11.281838 121.3176 441.00003 188 180 171
13.86644 121.33241 440.08334 189 189 179
16.180895 121.35518 440.16669 184 183 180
18.492428 121.35516 440.16669 194 184 177
21.181049 121.30965 440 186 182 187
23.827013 121.30441 440.36365 194 189 186
26.246996 121.19938 441 192 190 188
27.790939 121.58537 441 190 190 187
-73.225922 123.73586 441.00003 195 191 188
-71.956062 123.02164 442 196 192 186
6.5766292 123.79536 442 175 168 181
8.501791 123.67068 441.55557 171 170 184
11.210739 123.68212 440.53848 176 168 175
13.643899 123.89541 440.00003 185 178 176
16.174622 123.23521 440 180 172 185
21.469883 123.71661 440 182 177 180
23.959442 123.87923 440.10001 194 186 183
26.150248 123.66774 440.54547 195 190 188
27.790939 123.51529 441 194 187 184
-75.050941 126.5034 442 195 194 186
-74.041779 125.85222 441.75 195 192 188
6.5766292 126.11654 442 178 177 177
8.4961987 126.28822 441.25 189 185 183
11.068162 126.21843 440.42859 185 189 185
13.286295 126.12354 440 171 176 177
22.33638 126.31609 440 194 188 179
23.87682 126.31609 440 196 190 186
26.288837 126.27653 440.39999 195 191 187
27.790939 126.21719 441 196 191 187
4.4875822 129.05667 442 172 183 185
6.1897678 128.82455 442 173 180 192
8.4975109 129.01654 441.33334 191 191 189
11.17388 128.69984 440.25 192 192 188
13.86396 128.62674 440 189 187 188
16.174622 129.01187 440 194 187 179
17.715059 129.01186 440 189 181 182
21.676195 128.84683 440.00003 193 192 187
23.87682 128.62675 440 194 192 188
26.091206 128.53047 440 196 192 189
27.727921 127.85652 440 196 190 190
3.9653203 131.53256 442 169 179 183
6.1897683 131.53258 442 180 184 189
8.4916763 131.23499 441 193 192 189
11.17388 131.0118 440.25 192 191 189
13.86396 130.93741 440 179 182 183
16.17462 130.93741 440 188 173 159
18.22854 131.06578 440 185 183 179
21.412117 130.93741 440 195 193 187
23.774294 130.7601 440.14288 194 192 188
25.674002 130.42393 440 194 192 188
21.229191 132.77893 441 196 192 186
-68.396118 118.95055 443.16669 190 180 174
-66.54818 118.68293 443.77777 193 189 183
4.6633325 119.69219 444 195 190 182
6.3149295 119.01212 444 193 189 183
8.3163757 118.65065 443.42859 193 188 183
10.081129 117.87167 443 193 190 187
27.141502 118.2594 443 193 187 186
-68.607193 121.19332 443.54547 192 185 178
-66.64679 121.05232 444 192 191 187
3.983263 121.34379 444 198 185 176
6.2094131 121.09473 443.44446 190 189 183
7.754715 120.58582 443 191 191 184
-71.278366 123.82314 443.28574 195 191 186
-69.153069 123.34943 443.875 194 187 183
1.554444 123.57832 444 191 171 171
3.9617317 123.67757 443.80002 192 175 174
5.583395 123.45507 443 181 178 183
28.692444 122.52451 443 190 188 183
-73.212044 126.6163 443.75 195 193 188
-71.504425 125.78044 444 195 192 188
-69.949982 125.13275 444 194 193 187
-1.165833 127.46442 444 170 183 187
1.2435553 126.37633 444.00003 180 176 172
3.8103611 126.24877 443.45456 188 174 170
5.4283009 126.40186 443 165 154 178
-0.77722204 128.63025 444 178 188 183
1.1643742 128.922 443.66669 186 186 177
3.4896216 128.72827 443 187 176 177
-0.77722204 130.96191 444 178 178 177
1.163499 131.17796 443.41669 181 178 173
3.101886 131.05469 443 169 168 177
2.3264143 132.60562 443 183 179 184
-65.433685 119.57227 445 191 192 186
-64.04805 119.07477 445.42859 188 188 184
-61.320454 119.127 446.25 191 183 179
-5.7381396 119.45763 447 157 150 180
-3.911201 119.28258 446.83334 181 177 185
-1.5614461 119.06026 446 191 185 178
1.1684589 119.18279 445 191 173 169
3.7974913 119.08542 445 195 181 175
5.4528074 118.40382 445 195 189 183
-65.745277 121.6755 445 190 192 187
-63.774612 121.2159 446.11111 192 188 185
-61.254452 121.0894 446.54547 195 190 184
-7.8247356 122.06586 447 168 180 178
-6.2525921 121.13246 446.44446 160 171 174
-3.903615 121.01207 446 184 185 182
-1.5599875 121.26559 445.5 190 186 182
1.1684589 121.51971 445 193 182 173
3.11589 120.74073 445 196 177 170
-68.160095 124.24612 445 195 183 181
-66.278214 123.98052 445.44446 192 188 186
-63.895012 123.68816 446.5 192 189 186
-61.400829 123.06337 446.83334 197 190 184
-10.476043 124.14512 446.60001 175 149 152
-8.5258913 123.97663 446.45456 177 180 169
-6.2457843 123.7446 446 171 177 180
-3.9011354 123.65169 445.66669 189 187 177
-1.5579451 123.85662 445 190 178 161
0 123.85663 445 193 184 164
-70.691757 126.77779 445 194 192 187
-68.617661 126.31998 445.44446 194 185 180
-66.361465 126.47713 446 193 190 184
-64.051056 126.09004 447.00003 193 191 185
-18.779366 126.76072 447 186 163 158
-12.519577 126.76072 447 193 190 187
-11.012714 126.32119 446.45456 182 182 177
-8.5879536 126.47715 446 177 172 172
-6.2457848 126.47713 446 183 173 163
-3.8948627 126.19355 445 163 157 161
-1.5579451 126.19355 445 170 169 178
0 125.41458 445 183 186 173
-72.915329 129.06525 445.5 194 192 188
-71.241692 128.59113 445.45456 191 192 187
-68.720543 128.85161 446.11111 189 184 178
-66.691055 128.91434 446.71429 191 192 185
-64.945305 127.54318 447 193 190 186
-18.388128 127.93442 447 194 183 172
-16.431944 128.10211 447.00003 193 191 186
-13.581506 128.88458 447.00003 193 191 186
-10.930122 128.81931 446 191 191 187
-8.5879536 128.81931 446 192 191 186
-6.2457848 128.81931 446 187 187 180
-3.8981698 128.62715 445.33334 163 176 176
-2.0253286 128.68626 445 166 166 168
-12.780402 130.9339 447 194 192 187
-10.9345 130.81982 446.16669 192 192 187
-8.5879545 130.77112 446 192 193 187
-6.2434502 130.72209 445.83334 189 187 177
-3.8998222 130.62436 445.5 177 173 171
-1.5579451 130.73756 445 172 165 172
-58.816803 119.59417 448 193 175 172
-56.464134 119.59416 448 188 175 171
-53.719349 119.59415 448 185 164 163
-51.227074 119.53115 448.5 179 152 150
-48.730423 119.46812 449 164 139 136
-46.372498 119.46812 449 154 123 126
-44.800549 119.46812 449 144 107 114
-33.403915 119.46812 449 100 59 59
-31.438984 119.46812 449 97 57 56
-28.688068 119.46812 449 98 58 55
-26.118774 119.59766 448.75 103 65 62
-23.370052 119.59766 448.75 137 105 87
-21.189804 119.68285 448.33334 161 130 107
-19.048943 119.59766 448.75 190 174 144
-16.505466 119.46812 449 198 184 153
-14.540528 119.46812 449 192 186 153
-10.610656 119.46812 449 189 172 166
-8.6299658 119.6385 448.16669 178 180 174
-6.7966089 119.46346 448 157 167 170
-58.816814 121.55473 448 196 187 178
-56.46413 121.55473 448 191 177 170
-53.719345 121.55471 448 190 169 166
-51.012295 121.12138 448.33334 186 163 161
-48.730427 121.04007 449 175 154 154
-46.372498 121.04007 449 166 142 145
-44.32896 121.35445 449 163 136 139
-36.154827 121.62955 449 125 82 88
-33.710957 121.16998 448.89999 111 65 71
-31.415787 121.34218 448.66669 105 61 62
-28.828737 121.20413 448.57144 101 61 59
-26.082455 121.47717 448.38464 105 64 62
-23.612656 121.34274 448.27274 120 78 72
-21.174051 121.55473 448 145 107 95
-18.757563 121.31826 448.18182 179 165 146
-16.487087 121.29696 448.5 169 171 159
-13.737488 121.28011 448.4375 155 159 164
-10.987452 121.25203 448.33334 170 173 165
-8.7244921 121.4567 448 170 174 180
-60.973419 124.49557 448 195 190 183
-58.816799 123.9074 448 193 186 181
-56.24691 124.1302 448.54547 186 175 176
-53.5555 123.99545 448.60001 197 176 172
-51.016895 123.89818 449 195 176 172
-48.730423 123.79099 449 192 175 174
-46.68689 123.398 449 186 168 167
-44.189232 124.00932 449 181 163 163
-41.106468 124.34118 449 177 151 153
-38.434155 124.02679 449 159 131 130
-36.154831 123.79098 449 148 114 115
-33.841465 123.79745 448.63638 134 99 103
-31.376547 123.93833 448.11111 123 79 86
-29.016291 123.9074 448 120 69 76
-26.271507 123.9074 448 116 67 69
-23.52672 123.9074 448 124 73 74
-21.174049 123.9074 448 139 92 83
-18.821377 123.9074 448 183 161 150
-16.468704 123.9074 448 183 188 185
-13.723921 123.90739 448 178 182 180
-11.292826 123.59371 448 170 177 162
-9.4106884 123.12318 448 191 190 183
-63.130039 126.26008 448 193 192 186
-61.169476 126.26008 448 191 191 184
-58.860561 126.3546 448.33334 187 188 181
-56.232906 126.47044 449 190 187 181
-53.446266 126.5419 449 198 183 170
-51.186592 126.44365 449 196 180 172
-49.516396 126.14892 449 194 188 184
-40.477688 126.54192 449 182 163 163
-38.611 126.64014 449 176 154 154
-36.154831 126.5419 449 171 141 144
-33.780373 126.47965 448.77777 157 124 129
-31.376547 126.29119 448.11111 144 106 109
-29.016291 126.26006 448 133 87 93
-26.271507 126.26007 448 129 75 80
-23.52672 126.26008 448 131 79 79
-21.174051 126.26008 448 139 97 91
-18.821377 126.03602 448.00003 192 163 154
-16.468706 126.26008 448 193 190 185
-13.830861 126.18878 448 190 189 188
-65.352013 129.13556 448 193 192 186
-63.522148 128.61275 448 194 192 187
-61.214592 128.70882 448.33334 193 193 186
-58.948093 128.89984 449 191 191 186
-56.328178 128.11386 449 188 177 180
-52.856785 128.70332 449 197 169 165
-51.874321 128.89983 449 199 172 170
-37.72678 128.11385 449 185 166 164
-36.056583 128.80157 449 182 163 164
-33.788734 128.86812 448.88889 174 155 154
-31.368961 128.61275 448 167 140 140
-29.016291 128.61275 448 157 128 128
-26.271503 128.61275 448 152 109 110
-23.52672 128.61275 448 152 104 103
-21.174051 128.61275 448 163 122 116
-19.135067 128.92644 448 187 164 154
-16.468706 129.39697 448 193 190 185
-14.508144 127.82852 448 194 192 186
-65.482712 130.1812 448 191 192 185
-59.734062 130.47179 449 195 192 190
-52.856785 131.25775 449 196 189 181
-51.677826 131.45424 449 196 189 180
-36.547817 130.47179 449 190 185 178
-33.796906 130.47179 449 186 172 174
-31.392883 130.27806 448.33334 178 161 160
-29.016289 130.1812 448 171 148 146
-26.03624 130.33804 448 168 135 134
-23.526722 130.5733 448 172 133 130
-21.174049 130.5733 448 180 147 136
-18.821377 130.5733 448 192 182 168
-16.468706 130.5733 448 194 191 185
-14.116033 131.35753 448 194 191 188
-50.695358 132.8297 449 195 192 183
-43.324875 119.73421 450 138 100 108
-40.961697 119.73421 450 128 84 93
-36.235348 119.7342 450 109 64 72
-34.659901 119.7342 450 103 60 64
-12.997463 119.7342 450 181 171 155
-11.815875 119.7342 450 186 169 160
-43.212345 121.08458 450.00003 152 119 126
-40.9617 121.30965 450 139 104 111
-38.619972 120.9823 450.25 124 82 89
-36.258358 120.59794 450.28574 114 68 77
-46.318233 123.98793 450 186 170 168
-43.167336 123.35774 450 175 147 153
-41.15863 123.08203 450 163 133 137
-38.992386 122.88509 450 147 110 115
-48.445091 126.42986 450 194 185 183
-46.377308 126.13447 450 190 180 178
-43.718742 126.42986 450 186 173 170
-41.749424 126.42986 450 183 167 165
-37.810802 126.036 450 167 139 143
-57.503925 129.58078 450 187 180 185
-55.928471 129.1869 450 190 177 179
-54.037933 129.34447 450 198 171 169
-50.751999 128.96185 450.00003 199 177 173
-48.917728 128.55673 450 194 189 183
-46.389652 128.67787 450.70001 194 186 184
-43.663837 128.48369 450.54547 192 183 181
-41.139507 128.82881 450.71429 190 179 177
-38.756069 128.87181 450 186 170 173
-37.023075 129.97464 450 185 177 175
-58.291653 130.76236 450 187 184 190
-55.731544 130.95929 450 193 185 181
-54.09045 131.02493 450 193 181 180
-50.7519 131.45067 450.20001 196 184 177
-49.028759 131.08195 450.71429 194 190 182
-46.184319 130.6582 451 193 191 186
-43.421158 130.6582 451 192 190 186
-41.052727 130.6582 451 192 185 183
-38.684299 130.6582 451 188 181 181
-35.447624 130.76236 450 189 179 171
-50.414402 133.91325 450 195 192 184
-49.626675 133.51939 450 194 194 187
-49.736958 135.00032 451 195 194 186
-353.32095 799.38861 2523 197 194 188
-357.73746 803.80511 2523 196 194 188
-353.32095 803.80511 2523 197 194 187
-353.32095 808.22156 2523 198 194 186
-382.68033 747.56158 2542 189 188 186
-378.23053 747.56158 2542 186 189 183
-382.68033 752.01135 2542 189 187 183
-378.23053 752.01135 2542 185 188 183
-373.78079 752.01135 2542 187 185 182
-369.33102 752.01135 2542 187 185 182
-364.88126 752.01135 2542 190 188 184
-378.23053 756.46106 2542 185 188 183
-373.78079 756.46106 2542 187 185 182
-369.33102 756.46106 2542 187 185 182
-364.88126 756.46106 2542 190 188 184
-378.23053 760.91089 2542 188 191 182
-373.78079 760.91089 2542 189 189 184
-369.33102 760.91089 2542 189 189 184
-378.23053 765.36066 2542 192 193 184
-373.78079 765.36066 2542 192 192 185
-369.33102 765.36066 2542 192 192 185
-378.23053 769.81042 2542 192 193 187
-333.73285 769.81042 2542 196 186 188
-329.28305 769.81042 2542 196 186 188
-333.73285 774.26019 2542 196 184 183
-329.28305 774.26019 2542 196 184 183
-338.18259 778.70996 2542 190 180 181
-333.73285 778.70996 2542 195 183 178
-329.28305 778.70996 2542 195 183 178
-342.63239 800.9588 2542 192 187 190
-338.18259 800.9588 2542 194 194 189
-342.63239 805.40857 2542 197 192 189
-338.18259 805.40857 2542 197 193 189
-342.63239 809.85834 2542 197 193 189
-351.53195 823.20776 2542 197 195 180
-347.08215 823.20776 2542 196 191 182
-351.53195 827.65747 2542 193 184 174
-347.08215 827.65747 2542 191 180 177
-347.08215 832.10724 2542 187 183 181
-293.68491 845.45654 2542 195 194 191
-289.23511 845.45654 2542 195 194 191
-284.78537 845.45654 2542 195 194 190
-293.68491 849.90631 2542 196 193 191
-289.23511 849.90631 2542 196 194 190
-284.78537 849.90631 2542 196 194 190
-284.78537 854.35614 2542 198 194 190
-425.72162 743.89252 2560 195 192 188
-434.68414 748.37378 2560 194 195 189
-430.20291 748.37378 2560 195 193 188
-425.72162 748.37378 2560 196 193 188
-421.24033 748.37378 2560 197 192 188
-362.9837 748.37378 2560 194 192 187
-358.50241 748.37378 2560 196 192 188
-354.02112 748.37378 2560 194 194 188
-434.68414 752.85504 2560 194 193 191
-430.20291 752.85504 2560 195 194 189
-425.72162 752.85504 2560 195 193 188
-421.24033 752.85504 2560 196 191 189
-416.75906 752.85504 2560 196 191 189
-412.27777 752.85504 2560 194 192 190
-407.79648 752.85504 2560 191 193 190
-403.31519 752.85504 2560 187 187 191
-398.83389 752.85504 2560 182 178 183
-354.02112 752.85504 2560 194 192 189
-349.53983 752.85504 2560 193 192 187
-336.09598 752.85504 2560 192 190 184
-434.68414 757.3363 2560 195 194 190
-430.20291 757.3363 2560 195 194 189
-425.72162 757.3363 2560 195 194 189
-421.24033 757.3363 2560 196 193 189
-416.75906 757.3363 2560 196 193 189
-412.27777 757.3363 2560 193 193 189
-407.79648 757.3363 2560 191 192 189
-403.31519 757.3363 2560 188 190 189
-398.83389 757.3363 2560 185 181 182
-349.53983 757.3363 2560 193 193 189
-345.05856 757.3363 2560 193 195 188
-340.57727 757.3363 2560 194 194 187
-336.09598 757.3363 2560 195 193 186
-331.61472 757.3363 2560 195 193 186
-327.13345 757.3363 2560 196 190 186
-322.65216 757.3363 2560 195 193 186
-318.17087 757.3363 2560 195 192 186
-313.68961 757.3363 2560 195 191 187
-434.68414 761.81763 2560 195 194 190
-430.20291 761.81763 2560 195 194 189
-425.72162 761.81763 2560 195 194 189
-421.24033 761.81763 2560 196 193 189
-416.75906 761.81763 2560 196 193 189
-412.27777 761.81763 2560 193 193 189
-407.79648 761.81763 2560 191 192 189
-403.31519 761.81763 2560 188 190 189
-398.83389 761.81763 2560 185 181 182
-349.53983 761.81763 2560 193 193 189
-345.05856 761.81763 2560 193 195 188
-340.57727 761.81763 2560 194 194 187
-336.09598 761.81763 2560 195 193 186
-331.61472 761.81763 2560 195 193 186
-327.13345 761.81763 2560 196 190 186
-322.65216 761.81763 2560 195 193 186
-318.17087 761.81763 2560 195 192 186
-313.68961 761.81763 2560 195 191 187
-425.72162 766.29889 2560 194 194 190
-421.24033 766.29889 2560 194 194 189
-416.75906 766.29889 2560 192 193 189
-412.27777 766.29889 2560 192 193 189
-407.79648 766.29889 2560 190 193 188
-403.31519 766.29889 2560 190 188 188
-398.83389 766.29889 2560 190 178 181
-394.35263 766.29889 2560 190 178 174
-354.02112 766.29889 2560 195 193 191
-349.53983 766.29889 2560 195 193 191
-345.05856 766.29889 2560 195 194 191
-322.65216 766.29889 2560 195 194 190
-318.17087 766.29889 2560 196 195 190
-313.68961 766.29889 2560 195 192 191
-309.20834 766.29889 2560 195 192 190
-416.75906 770.78015 2560 191 195 188
-412.27777 770.78015 2560 191 195 188
-407.79648 770.78015 2560 190 194 187
-403.31519 770.78015 2560 192 193 186
-398.83389 770.78015 2560 195 183 180
-354.02112 770.78015 2560 196 194 188
-349.53983 770.78015 2560 197 190 183
-318.17087 770.78015 2560 197 194 189
-313.68961 770.78015 2560 196 193 191
-309.20834 770.78015 2560 196 193 189
-304.72705 770.78015 2560 197 195 187
-421.24033 775.26147 2560 194 194 187
-416.75906 775.26147 2560 193 194 187
-412.27777 775.26147 2560 193 194 187
-407.79648 775.26147 2560 193 196 186
-403.31519 775.26147 2560 194 193 185
-398.83389 775.26147 2560 195 192 179
-349.53983 775.26147 2560 192 180 175
-318.17087 775.26147 2560 190 194 189
-313.68961 775.26147 2560 194 185 192
-309.20834 775.26147 2560 198 193 189
-304.72705 775.26147 2560 197 188 186
-416.75906 779.74274 2560 196 194 188
-412.27777 779.74274 2560 196 194 188
-407.79648 779.74274 2560 196 194 187
-403.31519 779.74274 2560 196 193 186
-398.83389 779.74274 2560 196 192 183
-318.17087 779.74274 2560 184 175 182
-313.68961 779.74274 2560 192 161 180
-309.20834 779.74274 2560 200 180 182
-304.72705 779.74274 2560 197 186 185
-300.24576 779.74274 2560 195 176 176
-412.27777 784.224 2560 196 195 190
-407.79648 784.224 2560 196 193 189
-403.31519 784.224 2560 196 193 188
-398.83389 784.224 2560 195 193 188
-394.35263 784.224 2560 194 192 189
-389.87137 784.224 2560 193 193 189
-371.94626 784.224 2560 191 191 183
-367.46497 784.224 2560 189 190 184
-362.9837 784.224 2560 192 189 186
-318.17087 784.224 2560 189 171 176
-313.68961 784.224 2560 195 176 168
-309.20834 784.224 2560 202 182 176
-304.72705 784.224 2560 199 180 184
-412.27777 788.70526 2560 197 197 190
-407.79648 788.70526 2560 197 194 189
-403.31519 788.70526 2560 196 194 188
-398.83389 788.70526 2560 195 193 188
-394.35263 788.70526 2560 194 194 189
-389.87137 788.70526 2560 193 193 189
-385.39008 788.70526 2560 192 194 189
-376.42752 788.70526 2560 190 190 183
-371.94626 788.70526 2560 190 190 183
-367.46497 788.70526 2560 189 191 185
-362.9837 788.70526 2560 189 193 187
-318.17087 788.70526 2560 195 187 181
-313.68961 788.70526 2560 199 192 177
-309.20834 788.70526 2560 204 186 181
-304.72705 788.70526 2560 201 179 185
-412.27777 793.18652 2560 196 195 190
-407.79648 793.18652 2560 196 195 189
-403.31519 793.18652 2560 196 194 188
-398.83389 793.18652 2560 195 194 188
-394.35263 793.18652 2560 194 194 189
-389.87137 793.18652 2560 193 193 189
-371.94626 793.18652 2560 189 189 184
-367.46497 793.18652 2560 189 191 186
-362.9837 793.18652 2560 191 190 189
-322.65216 793.18652 2560 196 193 186
-318.17087 793.18652 2560 195 192 186
-313.68961 793.18652 2560 197 192 187
-309.20834 793.18652 2560 200 193 187
-304.72705 793.18652 2560 198 189 187
-300.24576 793.18652 2560 197 191 188
-407.79648 797.66779 2560 196 194 187
-403.31519 797.66779 2560 196 193 187
-398.83389 797.66779 2560 196 194 188
-394.35263 797.66779 2560 194 195 189
-389.87137 797.66779 2560 193 194 189
-371.94626 797.66779 2560 188 183 185
-331.61472 797.66779 2560 193 194 181
-327.13345 797.66779 2560 196 193 185
-322.65216 797.66779 2560 195 193 188
-318.17087 797.66779 2560 195 193 188
-313.68961 797.66779 2560 196 194 188
-309.20834 797.66779 2560 197 194 187
-304.72705 797.66779 2560 196 196 187
-300.24576 797.66779 2560 196 193 187
-295.76447 797.66779 2560 196 192 188
-403.31519 802.14911 2560 193 193 187
-398.83389 802.14911 2560 193 195 188
-327.13345 802.14911 2560 196 193 189
-322.65216 802.14911 2560 195 194 191
-318.17087 802.14911 2560 194 194 190
-313.68961 802.14911 2560 195 194 189
-309.20834 802.14911 2560 195 196 188
-304.72705 802.14911 2560 195 194 187
-300.24576 802.14911 2560 195 193 187
-295.76447 802.14911 2560 195 192 187
-291.2832 802.14911 2560 195 192 187
-327.13345 806.63037 2560 196 193 189
-322.65216 806.63037 2560 195 194 191
-318.17087 806.63037 2560 194 194 190
-313.68961 806.63037 2560 195 194 189
-309.20834 806.63037 2560 195 196 188
-304.72705 806.63037 2560 195 194 187
-300.24576 806.63037 2560 195 193 187
-295.76447 806.63037 2560 195 192 187
-291.2832 806.63037 2560 195 192 187
-327.13345 811.11169 2560 196 194 189
-322.65216 811.11169 2560 195 196 190
-318.17087 811.11169 2560 194 195 189
-313.68961 811.11169 2560 194 195 188
-309.20834 811.11169 2560 194 195 187
-304.72705 811.11169 2560 194 194 187
-300.24576 811.11169 2560 194 193 187
-295.76447 811.11169 2560 194 193 188
-291.2832 811.11169 2560 194 193 188
-286.80194 811.11169 2560 195 193 187
-331.61472 815.59296 2560 195 194 190
-327.13345 815.59296 2560 195 195 190
-322.65216 815.59296 2560 194 195 190
-318.17087 815.59296 2560 194 195 189
-313.68961 815.59296 2560 194 195 188
-309.20834 815.59296 2560 194 197 187
-304.72705 815.59296 2560 194 196 187
-300.24576 815.59296 2560 194 195 188
-295.76447 815.59296 2560 194 194 189
-291.2832 815.59296 2560 194 194 189
-286.80194 815.59296 2560 194 194 187
-331.61472 820.07422 2560 195 195 188
-327.13345 820.07422 2560 194 194 188
-322.65216 820.07422 2560 194 194 188
-318.17087 820.07422 2560 195 193 187
-313.68961 820.07422 2560 195 194 187
-309.20834 820.07422 2560 195 196 186
-304.72705 820.07422 2560 194 198 186
-300.24576 820.07422 2560 194 196 187
-295.76447 820.07422 2560 194 197 188
-291.2832 820.07422 2560 194 197 188
-286.80194 820.07422 2560 194 195 187
-336.09598 824.55554 2560 194 194 186
-331.61472 824.55554 2560 194 194 186
-327.13345 824.55554 2560 193 194 186
-322.65216 824.55554 2560 191 193 187
-318.17087 824.55554 2560 190 191 186
-313.68961 824.55554 2560 192 192 186
-309.20834 824.55554 2560 194 195 185
-304.72705 824.55554 2560 194 196 185
-300.24576 824.55554 2560 195 195 186
-295.76447 824.55554 2560 195 196 188
-291.2832 824.55554 2560 195 196 188
-286.80194 824.55554 2560 195 197 187
-282.32065 824.55554 2560 194 195 187
-331.61472 829.0368 2560 193 193 184
-327.13345 829.0368 2560 193 193 185
-322.65216 829.0368 2560 189 195 187
-318.17087 829.0368 2560 185 191 183
-313.68961 829.0368 2560 189 188 179
-304.72705 829.0368 2560 195 198 185
-300.24576 829.0368 2560 196 195 187
-295.76447 829.0368 2560 196 195 189
-291.2832 829.0368 2560 196 195 189
-286.80194 829.0368 2560 196 195 189
-282.32065 829.0368 2560 195 195 188
-277.83936 829.0368 2560 194 194 188
-331.61472 833.51813 2560 189 187 182
-327.13345 833.51813 2560 193 193 184
-322.65216 833.51813 2560 191 192 187
-318.17087 833.51813 2560 189 191 180
-313.68961 833.51813 2560 189 188 173
-309.20834 833.51813 2560 188 190 179
-304.72705 833.51813 2560 192 193 185
-300.24576 833.51813 2560 197 194 188
-295.76447 833.51813 2560 196 193 191
-291.2832 833.51813 2560 196 193 191
-286.80194 833.51813 2560 196 194 190
-282.32065 833.51813 2560 195 194 190
-277.83936 833.51813 2560 194 195 189
-273.35806 833.51813 2560 192 193 189
-268.8768 833.51813 2560 191 187 190
-331.61472 837.99939 2560 186 174 184
-327.13345 837.99939 2560 194 184 181
-322.65216 837.99939 2560 194 190 179
-318.17087 837.99939 2560 194 187 177
-313.68961 837.99939 2560 188 186 176
-309.20834 837.99939 2560 183 189 182
-304.72705 837.99939 2560 190 191 189
-300.24576 837.99939 2560 198 192 190
-295.76447 837.99939 2560 197 192 191
-291.2832 837.99939 2560 197 192 191
-286.80194 837.99939 2560 196 193 190
-282.32065 837.99939 2560 195 194 190
-277.83936 837.99939 2560 194 195 190
-273.35806 837.99939 2560 192 195 190
-268.8768 837.99939 2560 191 191 190
-336.09598 842.48065 2560 189 184 186
-331.61472 842.48065 2560 189 184 186
-327.13345 842.48065 2560 194 181 179
-322.65216 842.48065 2560 193 186 172
-318.17087 842.48065 2560 192 183 175
-313.68961 842.48065 2560 188 185 179
-309.20834 842.48065 2560 183 190 186
-304.72705 842.48065 2560 190 190 193
-300.24576 842.48065 2560 196 193 192
-277.83936 842.48065 2560 195 196 190
-273.35806 842.48065 2560 194 195 191
-268.8768 842.48065 2560 194 195 190
-336.09598 846.96198 2560 189 184 186
-331.61472 846.96198 2560 189 184 186
-327.13345 846.96198 2560 194 181 179
-322.65216 846.96198 2560 193 186 172
-318.17087 846.96198 2560 192 183 175
-313.68961 846.96198 2560 188 185 179
-309.20834 846.96198 2560 183 190 186
-304.72705 846.96198 2560 190 190 193
-273.35806 846.96198 2560 194 195 191
-268.8768 846.96198 2560 194 195 190
-336.09598 851.44324 2560 193 194 188
-327.13345 851.44324 2560 194 190 183
-322.65216 851.44324 2560 192 193 179
-318.17087 851.44324 2560 191 188 180
-313.68961 851.44324 2560 187 184 182
-309.20834 851.44324 2560 184 189 187
-273.35806 851.44324 2560 197 195 191
-268.8768 851.44324 2560 197 194 190
-264.39551 851.44324 2560 197 194 190
-336.09598 855.9245 2560 194 195 190
-327.13345 855.9245 2560 194 195 188
-322.65216 855.9245 2560 194 194 187
-318.17087 855.9245 2560 194 195 186
-313.68961 855.9245 2560 192 191 185
-309.20834 855.9245 2560 190 194 188
-273.35806 855.9245 2560 196 193 191
-268.8768 855.9245 2560 196 194 191
-264.39551 855.9245 2560 197 193 192
-259.91425 855.9245 2560 197 195 191
-322.65216 860.40582 2560 195 193 188
-318.17087 860.40582 2560 197 194 188
-313.68961 860.40582 2560 197 193 189
-273.35806 860.40582 2560 195 190 191
-268.8768 860.40582 2560 196 192 190
-264.39551 860.40582 2560 197 190 190
-259.91425 860.40582 2560 198 192 190
-322.65216 864.88708 2560 195 195 190
-318.17087 864.88708 2560 195 195 191
-313.68961 864.88708 2560 195 194 193
-273.35806 864.88708 2560 196 193 191
-268.8768 864.88708 2560 196 195 190
-264.39551 864.88708 2560 197 193 189
-259.91425 864.88708 2560 198 192 189
-255.43297 864.88708 2560 197 192 189
-327.13345 869.36829 2560 196 196 190
-322.65216 869.36829 2560 195 198 191
-318.17087 869.36829 2560 194 196 192
-313.68961 869.36829 2560 194 195 193
-295.76447 869.36829 2560 197 194 190
-277.83936 869.36829 2560 198 195 190
-273.35806 869.36829 2560 197 195 191
-268.8768 869.36829 2560 197 194 190
-264.39551 869.36829 2560 197 195 189
-259.91425 869.36829 2560 198 194 189
-255.43297 869.36829 2560 197 194 189
-322.65216 873.84961 2560 195 196 192
-318.17087 873.84961 2560 194 196 192
-313.68961 873.84961 2560 195 194 193
-295.76447 873.84961 2560 197 194 190
-291.2832 873.84961 2560 196 196 190
-286.80194 873.84961 2560 196 196 190
-282.32065 873.84961 2560 196 196 190
-277.83936 873.84961 2560 197 195 190
-273.35806 873.84961 2560 197 194 191
-268.8768 873.84961 2560 197 194 190
-264.39551 873.84961 2560 197 195 190
-259.91425 873.84961 2560 198 196 190
-255.43297 873.84961 2560 197 194 190
-313.68961 878.33087 2560 92 65 65
-309.20834 878.33087 2560 91 64 63
-304.72705 878.33087 2560 89 64 62
-300.24576 878.33087 2560 87 61 60
-295.76447 878.33087 2560 87 61 58
-291.2832 878.33087 2560 88 60 57
-286.80194 878.33087 2560 88 60 57
-282.32065 878.33087 2560 89 60 56
-277.83936 878.33087 2560 91 59 56
-273.35806 878.33087 2560 90 59 55
-268.8768 878.33087 2560 90 59 56
-264.39551 878.33087 2560 90 60 56
-259.91425 878.33087 2560 91 61 57
-309.20834 882.81219 2560 91 67 64
-304.72705 882.81219 2560 89 64 64
-300.24576 882.81219 2560 88 62 62
-295.76447 882.81219 2560 88 62 60
-291.2832 882.81219 2560 89 62 59
-286.80194 882.81219 2560 89 62 59
-282.32065 882.81219 2560 89 61 59
-277.83936 882.81219 2560 90 60 58
-273.35806 882.81219 2560 89 60 57
-268.8768 882.81219 2560 89 60 57
-264.39551 882.81219 2560 89 60 57
-304.72705 887.29346 2560 90 65 65
-300.24576 887.29346 2560 89 64 63
-295.76447 887.29346 2560 90 64 62
-291.2832 887.29346 2560 91 63 61
-286.80194 887.29346 2560 91 63 61
-282.32065 887.29346 2560 90 63 60
-277.83936 887.29346 2560 89 61 58
-273.35806 887.29346 2560 88 61 57
-268.8768 887.29346 2560 88 60 57
-264.39551 887.29346 2560 88 61 56
-268.8768 891.77472 2560 88 60 57
-264.39551 891.77472 2560 88 61 56
-259.91425 891.77472 2560 89 59 56
-264.39551 896.25604 2560 88 59 56
-259.91425 896.25604 2560 89 58 55
-259.91425 914.18109 2560 89 62 62
-268.8768 918.66235 2560 91 64 64
-264.39551 918.66235 2560 90 65 63
-259.91425 918.66235 2560 89 63 62
-255.43297 918.66235 2560 89 61 61
-268.8768 923.14368 2560 95 66 65
-264.39551 923.14368 2560 93 65 64
-259.91425 923.14368 2560 92 64 62
-255.43297 923.14368 2560 91 62 61
-250.95168 923.14368 2560 90 62 61
-246.47041 923.14368 2560 90 62 61
-268.8768 927.62494 2560 99 68 69
-264.39551 927.62494 2560 97 67 68
-259.91425 927.62494 2560 96 65 66
-255.43297 927.62494 2560 94 64 64
-250.95168 927.62494 2560 92 63 63
-246.47041 927.62494 2560 92 63 63
-241.98914 927.62494 2560 92 64 63
-268.8768 932.1062 2560 99 68 69
-264.39551 932.1062 2560 97 67 68
-255.43297 932.1062 2560 94 64 64
-250.95168 932.1062 2560 92 63 63
-246.47041 932.1062 2560 92 63 63
-241.98914 932.1062 2560 92 64 63
-255.43297 936.58752 2560 96 65 67
-250.95168 936.58752 2560 93 65 65
-246.47041 936.58752 2560 93 65 65
-241.98914 936.58752 2560 92 65 64
-250.95168 941.06879 2560 94 66 67
-246.47041 941.06879 2560 94 66 67
-241.98914 941.06879 2560 93 67 65
-241.98914 945.55011 2560 98 67 67
-210.62016 958.99396 2560 95 61 60
-210.62016 963.47522 2560 95 63 62
-210.62016 967.95654 2560 95 64 63
-206.13889 967.95654 2560 95 64 63
-210.62016 972.43781 2560 99 66 64
-206.13889 972.43781 2560 99 66 64
-201.65759 972.43781 2560 99 64 63
-215.10146 976.91907 2560 101 67 65
-210.62016 976.91907 2560 99 66 64
-206.13889 976.91907 2560 99 66 64
-201.65759 976.91907 2560 99 64 63
-197.17632 976.91907 2560 100 62 62
-192.69504 976.91907 2560 100 61 61
-215.10146 981.40039 2560 107 67 69
-210.62016 981.40039 2560 104 66 66
-206.13889 981.40039 2560 104 66 66
-201.65759 981.40039 2560 103 66 64
-197.17632 981.40039 2560 102 63 63
-192.69504 981.40039 2560 101 63 62
-210.62016 985.88165 2560 108 68 69
-206.13889 985.88165 2560 108 68 69
-201.65759 985.88165 2560 106 66 65
-197.17632 985.88165 2560 105 64 64
-192.69504 985.88165 2560 103 64 63
-206.13889 990.36285 2560 110 68 70
-201.65759 990.36285 2560 110 68 70
-197.17632 990.36285 2560 108 66 67
-192.69504 990.36285 2560 106 65 65
-206.13889 994.84418 2560 115 71 75
-201.65759 994.84418 2560 115 71 75
-197.17632 994.84418 2560 112 69 71
-192.69504 994.84418 2560 110 67 68
-293.55884 772.28558 2580 197 183 176
-293.55884 776.80188 2580 198 161 167
-293.55884 781.31818 2580 198 172 159
-289.04257 781.31818 2580 199 185 174
-293.55884 785.83441 2580 198 164 167
-289.04257 785.83441 2580 201 181 177
-293.55884 790.35071 2580 195 174 175
-289.04257 790.35071 2580 194 181 181
-293.55884 794.86707 2580 192 178 182
-289.04257 794.86707 2580 187 185 184
-257.42853 853.57886 2580 196 195 190
-252.91225 853.57886 2580 195 195 190
-252.91225 858.09509 2580 197 194 189
-248.39595 858.09509 2580 197 194 189
-248.39595 862.61139 2580 197 195 189
-243.87967 862.61139 2580 197 194 189
-243.87967 867.12775 2580 197 194 187
-234.84708 871.64398 2580 193 189 180
-230.33078 871.64398 2580 191 187 184
-234.84708 876.16028 2580 191 189 184
-230.33078 876.16028 2580 187 187 187
-225.8145 876.16028 2580 184 181 189
-234.84708 880.67657 2580 193 193 189
-230.33078 880.67657 2580 191 194 189
-225.8145 880.67657 2580 189 190 190
-221.29822 880.67657 2580 188 194 189
-234.84708 885.19287 2580 122 106 88
-230.33078 885.19287 2580 137 114 98
-225.8145 885.19287 2580 145 124 108
-221.29822 885.19287 2580 153 137 118
-216.78194 885.19287 2580 157 150 129
-212.26564 885.19287 2580 161 157 141
-207.74934 885.19287 2580 161 157 141
-234.84708 889.70911 2580 109 80 71
-230.33078 889.70911 2580 120 94 81
-225.8145 889.70911 2580 129 105 92
-221.29822 889.70911 2580 138 120 104
-216.78194 889.70911 2580 146 132 116
-212.26564 889.70911 2580 155 147 129
-207.74934 889.70911 2580 155 147 129
-203.23305 889.70911 2580 165 155 142
-198.71677 889.70911 2580 175 165 157
-234.84708 894.2254 2580 97 60 64
-230.33078 894.2254 2580 103 75 71
-225.8145 894.2254 2580 113 85 79
-221.29822 894.2254 2580 124 98 86
-216.78194 894.2254 2580 136 113 94
-212.26564 894.2254 2580 149 126 109
-207.74934 894.2254 2580 149 126 109
-203.23305 894.2254 2580 159 141 124
-198.71677 894.2254 2580 170 150 141
-194.20047 894.2254 2580 176 161 158
-234.84708 898.7417 2580 97 60 64
-230.33078 898.7417 2580 103 75 71
-225.8145 898.7417 2580 113 85 79
-221.29822 898.7417 2580 124 98 86
-216.78194 898.7417 2580 136 113 94
-212.26564 898.7417 2580 149 126 109
-207.74934 898.7417 2580 149 126 109
-203.23305 898.7417 2580 159 141 124
-198.71677 898.7417 2580 170 150 141
-194.20047 898.7417 2580 176 161 158
-284.52628 903.258 2580 91 64 61
-239.36336 903.258 2580 89 57 55
-234.84708 903.258 2580 93 59 57
-230.33078 903.258 2580 97 62 62
-225.8145 903.258 2580 104 69 67
-221.29822 903.258 2580 111 74 69
-216.78194 903.258 2580 123 87 72
-212.26564 903.258 2580 135 103 89
-207.74934 903.258 2580 135 103 89
-203.23305 903.258 2580 146 119 107
-198.71677 903.258 2580 157 133 126
-194.20047 903.258 2580 165 147 145
-189.68419 903.258 2580 174 160 155
-289.04257 907.77429 2580 93 66 63
-284.52628 907.77429 2580 92 66 62
-280.00998 907.77429 2580 91 63 61
-243.87967 907.77429 2580 87 58 55
-239.36336 907.77429 2580 87 59 56
-234.84708 907.77429 2580 89 60 57
-230.33078 907.77429 2580 92 60 60
-225.8145 907.77429 2580 95 58 63
-221.29822 907.77429 2580 98 62 64
-216.78194 907.77429 2580 110 61 64
-212.26564 907.77429 2580 122 82 78
-207.74934 907.77429 2580 122 82 78
-203.23305 907.77429 2580 133 99 91
-198.71677 907.77429 2580 144 118 107
-194.20047 907.77429 2580 155 137 123
-189.68419 907.77429 2580 167 149 136
-185.16789 907.77429 2580 175 163 148
-289.04257 912.29059 2580 95 68 65
-284.52628 912.29059 2580 94 66 64
-280.00998 912.29059 2580 93 64 63
-243.87967 912.29059 2580 87 58 57
-239.36336 912.29059 2580 87 61 57
-234.84708 912.29059 2580 88 60 57
-230.33078 912.29059 2580 90 60 58
-225.8145 912.29059 2580 92 58 60
-221.29822 912.29059 2580 95 58 58
-216.78194 912.29059 2580 101 61 57
-212.26564 912.29059 2580 108 67 66
-207.74934 912.29059 2580 108 67 66
-203.23305 912.29059 2580 116 82 76
-198.71677 912.29059 2580 125 103 89
-194.20047 912.29059 2580 139 120 102
-189.68419 912.29059 2580 153 137 117
-185.16789 912.29059 2580 162 150 132
-180.65161 912.29059 2580 171 164 150
-289.04257 916.80688 2580 98 68 67
-284.52628 916.80688 2580 96 66 65
-280.00998 916.80688 2580 95 64 63
-248.39595 916.80688 2580 87 58 59
-243.87967 916.80688 2580 87 57 58
-239.36336 916.80688 2580 87 59 57
-234.84708 916.80688 2580 88 60 57
-230.33078 916.80688 2580 89 59 58
-225.8145 916.80688 2580 90 56 59
-221.29822 916.80688 2580 92 57 58
-216.78194 916.80688 2580 93 58 58
-212.26564 916.80688 2580 94 61 62
-207.74934 916.80688 2580 94 61 62
-203.23305 916.80688 2580 100 62 66
-198.71677 916.80688 2580 106 83 77
-194.20047 916.80688 2580 122 103 89
-189.68419 916.80688 2580 139 119 105
-185.16789 916.80688 2580 148 138 122
-180.65161 916.80688 2580 158 151 137
-176.1353 916.80688 2580 171 167 153
-284.52628 921.32312 2580 97 67 66
-280.00998 921.32312 2580 95 65 64
-239.36336 921.32312 2580 89 61 58
-234.84708 921.32312 2580 89 60 57
-230.33078 921.32312 2580 89 60 57
-225.8145 921.32312 2580 89 58 58
-221.29822 921.32312 2580 89 59 58
-216.78194 921.32312 2580 90 59 59
-212.26564 921.32312 2580 91 60 57
-207.74934 921.32312 2580 91 60 57
-203.23305 921.32312 2580 95 61 56
-198.71677 921.32312 2580 99 64 66
-194.20047 921.32312 2580 112 82 76
-189.68419 921.32312 2580 124 99 94
-185.16789 921.32312 2580 138 118 112
-180.65161 921.32312 2580 152 137 125
-176.1353 921.32312 2580 164 150 139
-234.84708 925.83942 2580 90 60 58
-230.33078 925.83942 2580 89 60 58
-225.8145 925.83942 2580 88 60 58
-221.29822 925.83942 2580 87 59 58
-216.78194 925.83942 2580 88 59 59
-212.26564 925.83942 2580 89 59 57
-207.74934 925.83942 2580 89 59 57
-203.23305 925.83942 2580 91 60 56
-198.71677 925.83942 2580 93 61 61
-194.20047 925.83942 2580 101 64 66
-189.68419 925.83942 2580 110 81 77
-185.16789 925.83942 2580 128 98 89
-180.65161 925.83942 2580 147 116 105
-176.1353 925.83942 2580 158 137 122
-230.33078 930.35571 2580 90 60 59
-225.8145 930.35571 2580 89 60 59
-221.29822 930.35571 2580 88 60 59
-216.78194 930.35571 2580 89 59 59
-212.26564 930.35571 2580 89 58 57
-207.74934 930.35571 2580 89 58 57
-203.23305 930.35571 2580 90 59 56
-198.71677 930.35571 2580 92 59 56
-194.20047 930.35571 2580 98 61 57
-189.68419 930.35571 2580 104 63 61
-185.16789 930.35571 2580 116 79 66
-180.65161 930.35571 2580 129 95 85
-176.1353 930.35571 2580 144 117 105
-171.61902 930.35571 2580 160 140 123
-225.8145 934.87201 2580 90 61 59
-221.29822 934.87201 2580 90 60 59
-216.78194 934.87201 2580 90 60 59
-212.26564 934.87201 2580 90 59 58
-207.74934 934.87201 2580 90 59 58
-203.23305 934.87201 2580 90 59 58
-198.71677 934.87201 2580 91 59 57
-194.20047 934.87201 2580 94 59 57
-189.68419 934.87201 2580 98 61 60
-185.16789 934.87201 2580 105 63 63
-180.65161 934.87201 2580 112 79 77
-176.1353 934.87201 2580 131 96 92
-171.61902 934.87201 2580 150 121 112
-167.10272 934.87201 2580 150 121 112
-162.58644 934.87201 2580 162 147 133
-225.8145 939.38831 2580 90 61 59
-221.29822 939.38831 2580 90 60 59
-216.78194 939.38831 2580 90 60 59
-212.26564 939.38831 2580 90 59 58
-207.74934 939.38831 2580 90 59 58
-203.23305 939.38831 2580 90 59 58
-198.71677 939.38831 2580 91 59 57
-194.20047 939.38831 2580 94 59 57
-189.68419 939.38831 2580 98 61 60
-185.16789 939.38831 2580 105 63 63
-180.65161 939.38831 2580 112 79 77
-176.1353 939.38831 2580 131 96 92
-171.61902 939.38831 2580 150 121 112
-167.10272 939.38831 2580 150 121 112
-162.58644 939.38831 2580 162 147 133
-225.8145 943.9046 2580 90 61 60
-221.29822 943.9046 2580 90 60 60
-216.78194 943.9046 2580 90 60 60
-212.26564 943.9046 2580 91 60 60
-207.74934 943.9046 2580 91 60 60
-203.23305 943.9046 2580 90 60 60
-198.71677 943.9046 2580 90 60 58
-194.20047 943.9046 2580 93 59 57
-189.68419 943.9046 2580 96 60 58
-185.16789 943.9046 2580 102 62 60
-180.65161 943.9046 2580 108 63 69
-176.1353 943.9046 2580 122 82 79
-171.61902 943.9046 2580 137 103 102
-167.10272 943.9046 2580 137 103 102
-162.58644 943.9046 2580 152 129 126
-158.07014 943.9046 2580 167 153 139
-225.8145 948.4209 2580 91 61 60
-221.29822 948.4209 2580 90 60 60
-216.78194 948.4209 2580 91 61 59
-212.26564 948.4209 2580 92 61 59
-207.74934 948.4209 2580 92 61 59
-203.23305 948.4209 2580 91 62 59
-198.71677 948.4209 2580 90 60 57
-194.20047 948.4209 2580 92 60 56
-189.68419 948.4209 2580 94 60 58
-185.16789 948.4209 2580 99 62 59
-180.65161 948.4209 2580 104 63 65
-176.1353 948.4209 2580 114 66 71
-171.61902 948.4209 2580 125 88 89
-167.10272 948.4209 2580 125 88 89
-162.58644 948.4209 2580 142 115 107
-158.07014 948.4209 2580 160 134 124
-153.55386 948.4209 2580 169 151 141
-230.33078 952.93719 2580 95 63 62
