ply
format ascii 1.0
comment PCL generated
element vertex 1245
property float x
property float y
property float z
property uchar red
property uchar green
property uchar blue
element camera 1
property float view_px
property float view_py
property float view_pz
property float x_axisx
property float x_axisy
property float x_axisz
property float y_axisx
property float y_axisy
property float y_axisz
property float z_axisx
property float z_axisy
property float z_axisz
property float focal
property float scalex
property float scaley
property float centerx
property float centery
property int viewportx
property int viewporty
property float k1
property float k2
end_header
-244.13173 86.07209 447 75 58 53
-243.89368 84.304092 448 74 55 45
-241.28281 84.351135 448.25 75 54 49
-239.09346 84.413673 449 74 56 48
-243.79564 86.264648 448 74 57 51
-241.35326 86.29966 448.18182 75 56 51
-239.42117 86.429703 448.85718 76 57 50
-243.79092 88.715698 448.10001 75 59 52
-241.57896 88.61853 448.80002 76 58 52
-239.72224 88.029144 449 77 58 50
-243.95384 91.027908 448.63638 77 59 53
-242.08014 90.38707 449 76 60 54
-245.22404 93.530968 449 82 61 51
-244.43808 93.530968 449 81 61 51
-245.22404 95.495911 449 82 62 52
-237.89294 84.286575 450 75 57 52
-236.05406 84.333405 450.25 75 56 52
-233.67731 84.614365 451.75 74 57 54
-231.82922 84.661186 452 76 57 52
-238.24385 86.188583 450.33334 75 57 50
-236.15804 85.955345 450.89999 76 57 52
-234.20291 86.243629 452 76 56 53
-240.51872 89.538078 450 77 59 53
-238.552 88.539772 450.80002 77 59 50
-236.34337 88.530373 451.55557 78 58 51
-234.67764 88.459068 452 79 56 52
-242.88188 91.901245 450 77 60 52
-240.92845 91.395363 450.69232 76 60 52
-238.60594 90.988022 451.20001 78 60 51
-236.84032 90.727257 452 80 59 53
-234.99413 90.199768 452 78 59 54
-243.64684 93.832047 450.44446 80 61 51
-241.27347 93.982445 451.16669 79 61 53
-239.03816 93.716324 452 78 62 55
-237.3678 92.573441 452 81 61 55
-245.64854 96.997841 450.5 85 63 54
-243.94659 96.316559 451.00003 84 63 53
-241.52794 96.330208 451.88889 83 62 56
-239.74149 95.73835 452 82 63 56
-245.69296 98.810913 451.125 88 63 55
-243.84093 98.679184 451.77777 87 64 55
-242.11516 98.112022 452 85 64 57
-246.12029 100.75773 451.80002 87 66 56
-231.54915 84.848495 453 78 58 50
-233.1351 86.434448 453 78 57 51
-231.33 86.316414 453.57144 77 58 48
-233.5957 89.036346 453.125 78 57 53
-231.50923 88.792015 453.70001 78 59 53
-235.99687 91.754807 453.16669 79 60 53
-233.70384 91.230347 453.54547 77 59 53
-231.66293 91.393616 454 77 59 53
-238.0238 94.21804 453.25 80 62 53
-236.18036 93.649513 453.72729 80 61 50
-233.91466 93.512878 454 78 61 50
-232.06029 92.983063 454 77 61 51
-240.2719 96.743141 453 85 62 57
-238.46745 96.138107 453.54547 82 61 54
-236.82866 96.161972 454 82 62 50
-242.91515 99.650719 453 87 64 57
-240.88036 98.575043 453.39999 84 63 57
-238.62427 98.345619 453.88889 82 64 56
-245.98132 101.6596 453 88 68 57
-243.80148 101.25331 453.66669 89 65 57
-241.19965 100.93034 454 88 66 54
-238.89494 100.77139 454 88 65 54
-247.95482 104.50661 454 91 74 62
-246.49579 103.28607 453.875 89 70 58
-244.17987 102.71848 454 90 68 56
-242.39175 102.51979 454 91 68 55
-230.18204 86.019577 455 76 57 49
-228.58907 86.019569 455 75 57 48
-226.4202 86.255882 456.25 75 58 49
-224.09398 86.297684 457 76 58 52
-230.18204 88.409019 455 78 57 49
-228.6447 88.430794 455.11111 78 56 48
-226.66919 88.749039 456.75 79 57 49
-224.79396 89.197601 457 78 58 50
-230.58026 91.196678 455 78 59 53
-228.6073 90.96489 455.83334 78 59 54
-226.49391 91.097565 457 77 60 53
-233.20865 94.462234 455 78 62 53
-231.09109 94.03064 455.22223 79 62 52
-229.06781 93.54628 456.75 79 62 54
-227.19389 93.597488 457 79 61 55
-236.15561 96.373779 455 81 62 52
-233.87003 96.378166 455.33334 80 62 55
-231.13205 95.991669 456.42859 81 63 54
-229.32719 95.464104 457 80 63 54
-238.14679 99.559692 455 81 65 55
-236.44617 98.864746 455.10001 81 64 55
-234.00525 98.715324 456.35718 81 65 57
-238.19547 101.56087 455.39999 87 65 56
-236.40665 101.17554 456 85 66 58
-245.71332 104.33855 455 92 71 57
-243.72214 103.94033 455 92 69 57
-241.64937 103.74758 455.89999 91 69 57
-239.2034 103.24624 455.80002 90 68 59
-248.0231 106.09081 455 93 74 63
-246.06653 106.11037 455.45456 95 73 60
-243.77867 106.15504 456.30002 96 71 62
-242.39349 105.59716 457 95 70 62
-248.64803 108.16077 456 96 76 64
-246.6577 107.93802 456.75 97 75 63
-244.39343 107.9971 457 99 75 67
-223.0811 86.78717 458 75 57 53
-221.13264 86.464027 458.20001 76 58 52
-225.28586 88.190201 458 78 56 52
-223.6824 88.991928 458 77 58 51
-221.32114 88.80558 458.54547 78 57 53
-225.4863 91.597549 458 78 59 52
-223.57054 91.497421 458.10001 78 59 51
-221.8878 91.356499 458.60001 77 61 54
-226.0876 93.802284 458 80 60 53
-223.91833 93.760666 458.66666 80 61 53
-230.4971 97.009216 458 82 64 55
-228.51707 96.360641 458.25 82 63 55
-226.53482 95.71077 458.5 83 62 53
-232.70184 98.813103 458 82 65 55
-231.25026 98.620552 458.5 84 65 54
-229.36044 98.221146 458.66669 83 63 54
-233.64519 101.2225 458.20001 85 67 58
-232.20558 100.43494 459 86 64 55
-238.77478 103.93768 458.5 91 68 59
-236.63916 103.07863 458.25 89 68 59
-234.44507 102.77069 458.66669 89 67 62
-242.9239 107.03082 458 95 71 63
-241.47025 105.89375 458.28574 93 70 61
-248.40558 109.15418 458.5 98 75 63
-246.13083 109.03515 458 98 76 63
-243.51067 108.60137 458.20001 98 75 65
-250.68561 110.0767 459 100 76 65
-249.48038 110.0767 459 100 76 65
-219.02258 86.562225 460 77 60 51
-216.26903 86.750587 461 78 59 52
-213.90936 86.534225 462 81 58 49
-220.63303 88.977921 460 81 58 52
-218.74966 88.790184 460.41669 78 59 50
-216.64757 88.537659 461.375 78 60 51
-220.95512 91.152046 460 78 59 55
-218.90207 91.111649 460.9231 78 59 54
-223.04874 94.211914 460 81 60 60
-221.1792 93.62899 460.30002 79 62 54
-219.59325 93.327911 461.20001 78 62 53
-227.88011 97.432838 460 84 64 54
-226.08263 96.662613 460.16669 84 62 51
-223.53244 96.005013 460.44446 82 61 55
-221.57524 95.855408 461.125 81 63 56
-230.69843 99.848526 460 85 64 54
-228.54573 99.070198 460.125 84 63 54
-226.16443 98.473343 461.10001 85 63 52
-223.8886 98.052513 461.39999 83 63 53
-222.40103 97.856461 462 83 64 58
-232.71149 101.8616 460 87 66 57
-231.15666 101.48369 460.11111 87 66 56
-228.93359 101.25944 461.09091 87 65 55
-227.25342 100.28265 462 87 64 53
-237.94547 104.6799 460 90 70 58
-236.01819 104.31522 460.16669 91 70 60
-233.606 104.06046 460.375 89 67 62
-231.6358 103.63748 461.33334 87 67 59
-229.67961 103.51758 462 88 69 57
-241.72237 106.91284 460.60001 95 70 61
-239.00951 106.40617 460.5 91 70 56
-236.44504 106.29111 461.00003 91 70 57
-234.22672 105.96758 461.39999 92 69 61
-243.24164 109.42857 460.5 99 74 64
-241.39587 108.83821 460.89999 97 71 62
-238.93399 108.76084 461.60001 95 71 58
-250.80498 111.70221 460.39999 103 77 69
-248.81842 111.45396 461 102 75 64
-245.85686 111.02066 461.25 100 76 64
-243.54811 111.27104 461.57144 99 77 66
-241.14452 110.94582 461.5 100 75 68
-251.20749 113.74487 461.25 104 81 71
-213.15665 86.721527 463 81 58 49
-211.53568 86.721527 463 79 59 51
-208.92351 86.81517 463.5 79 59 50
-215.7907 89.355583 463 80 59 50
-214.0408 88.637207 463 81 59 48
-211.44768 88.503365 463.45456 79 59 50
-209.07419 87.960289 463.83334 77 59 50
-218.01953 91.989655 463 78 62 52
-216.1882 91.546539 463.18182 81 61 51
-213.94583 91.072105 463.83334 81 60 50
-211.58643 90.157753 464 78 61 50
-218.83002 94.015862 463.00003 78 62 51
-216.43307 93.668259 463.57144 79 63 50
-214.42924 93.000565 464 80 62 51
-220.74448 96.652115 463.33334 81 62 55
-218.77794 95.385612 463.75 80 63 51
-225.31387 99.689232 463 84 64 53
-223.44781 99.355469 463.33334 83 64 55
-221.90564 98.174171 463.5 82 64 56
-228.01549 101.85052 463 87 64 57
-226.74226 101.11729 463.60001 85 64 55
-224.98827 100.71677 464 84 64 54
-231.15295 104.62738 463.33334 89 68 59
-228.81627 103.2998 463.20001 87 68 58
-233.50272 106.34667 463.16669 92 68 62
-231.39247 105.36259 463 90 68 63
-238.13278 109.53316 463.5 94 72 59
-236.34688 108.61912 463.44446 93 71 60
-234.73506 108.02686 464 93 70 61
-248.00734 111.44121 463 100 75 62
-247.19687 111.44121 463 100 76 63
-239.04245 110.8055 463.16669 99 75 63
-250.43878 113.87266 463 104 81 67
-248.70206 113.69899 463.00003 104 80 67
-246.65656 113.19726 463 104 80 69
-244.76541 112.65694 463 102 80 74
-250.84402 115.49361 463 106 83 69
-248.81784 115.49361 463 106 83 69
-247.05769 115.21266 463.5 105 83 69
-207.56555 87.09613 465 79 59 50
-205.93759 87.09613 465 79 59 50
-203.63393 87.330254 466.25 79 58 48
-210.00749 89.538086 465 75 59 51
-208.1082 88.995422 465 77 57 50
-206.03563 88.766701 465.22223 78 58 50
-204.1442 88.962608 466.25 79 59 50
-213.53476 91.708702 465 81 62 51
-211.06566 91.328842 465 77 60 52
-208.48474 91.366127 465.60001 78 59 52
-206.23196 90.889465 465.66669 78 59 52
-204.55994 90.643524 466.5 79 60 52
-215.70537 94.421974 465 81 64 49
-213.68723 93.856369 465.33334 79 63 51
-211.32663 93.893768 466.41669 79 60 54
-209.45958 93.093346 466.5 79 59 53
-218.79849 96.538322 465 82 62 53
-216.43402 96.2183 465.45456 81 63 53
-214.03209 96.115227 466.5 79 63 52
-221.07343 98.901756 465.28574 82 63 54
-218.74167 98.553001 465.63638 83 63 54
-216.50273 98.707634 466.5 82 64 54
-214.99817 98.506767 467 81 64 54
-226.28716 101.74783 465 84 65 57
-223.65926 101.32633 465.55557 86 63 55
-221.48772 100.8997 466.25 85 64 53
-219.17224 100.70103 466.75 84 66 53
-217.45062 100.55048 467 84 66 54
-228.0372 104.04228 465.25 87 68 62
-226.1711 103.5097 465.60001 86 66 62
-224.11354 103.31227 466.28574 87 65 60
-233.07036 107.17437 465 92 69 62
-230.74588 106.20875 465.375 91 68 58
-228.83995 105.94027 466.33334 92 68 55
-226.64732 105.65974 467 87 69 58
-235.5123 109.61632 465 94 73 67
-233.8008 108.8746 465.14288 92 71 63
-231.65347 108.48077 466.30002 92 70 61
-237.68289 110.70163 465 99 75 62
-236.18399 111.33806 465.71429 100 73 66
-234.11539 110.53182 466 97 73 66
-232.07603 110.12395 466 96 72 66
-246.90805 114.50021 465 105 82 69
-246.63672 116.39951 465 108 82 73
-203.44312 89.023438 468 81 58 48
-201.35051 88.603638 468.27274 78 58 49
-199.0835 88.193413 468.66669 77 57 49
-197.03629 87.845345 469 79 57 48
-205.62775 91.754211 468 80 60 53
-203.64519 91.342094 468.28574 80 60 52
-201.64886 90.773056 468.75 80 58 52
-199.49925 90.308304 469 79 59 52
-208.64299 93.869102 468.33334 80 59 50
-206.25705 92.946007 468.5 80 59 51
-203.49564 92.927048 468.75 80 62 53
-213.27393 97.215775 468 79 62 52
-211.36238 96.669609 468 79 61 49
-209.17403 95.824776 468.375 80 60 50
-215.86816 99.946548 468 82 64 52
-213.77943 99.059822 468.11111 80 63 51
-211.29018 98.260376 468.75 80 63 49
-221.19321 102.40426 468 86 65 55
-218.94028 101.78983 468 84 66 54
-216.24104 101.20967 468.42859 84 65 50
-223.37781 104.3158 468 89 66 59
-221.21805 103.47591 468.39999 89 66 57
-218.79239 102.62307 469 85 66 55
-228.15668 107.31966 468 92 69 55
-226.10861 106.63696 468 91 69 58
-224.51624 106.1054 468.66669 92 67 61
-230.53246 109.12197 468 96 71 58
-228.56627 108.95811 468 96 70 55
-226.55498 108.25443 468.5 95 71 57
-235.62259 112.47489 469 102 74 69
-231.02402 111.00621 468 99 72 66
-229.05469 110.83291 469 99 70 61
-227.41273 110.01192 469 97 71 57
-238.39711 113.46391 468 106 77 65
-235.93939 113.0543 468 107 77 69
-198.69051 89.266754 470 79 58 47
-196.40552 89.059425 470.11111 80 58 49
-193.87752 88.747902 470.30002 80 58 51
-191.1209 88.749924 471.625 80 59 48
-188.54706 88.737755 472 78 60 49
-201.02161 91.872086 470 81 60 51
-198.77454 91.527176 470.20001 79 61 50
-196.64093 91.130035 471.42859 80 60 50
-193.69333 90.767937 472.00003 79 60 52
-191.02577 90.390221 472 81 61 50
-188.79492 90.059731 472 80 61 50
-208.15196 94.614525 470 80 59 50
-206.30081 94.408844 470 80 60 51
-204.0383 94.285439 470 82 62 54
-201.38708 93.921333 470.27274 81 62 55
-199.06184 93.707336 471.125 80 63 53
-196.64417 92.538437 472 80 63 50
-208.35764 96.465675 470 81 61 50
-206.45953 96.431114 470.83334 84 62 52
-203.74364 96.511292 471.22223 86 63 54
-201.65837 96.404549 471.85718 83 64 55
-199.53601 95.430267 472 79 63 54
-211.03853 99.428764 470.20001 82 65 53
-208.79886 98.683662 470.22223 83 64 52
-207.16467 98.424484 471.5 85 65 52
-204.90654 98.322083 472 88 66 55
-215.61784 102.03374 471.33334 84 65 49
-213.89243 101.31107 471.16669 82 65 49
-211.77988 100.7404 470.75 83 65 52
-221.31572 104.48735 470 91 67 57
-218.85396 104.16059 471 87 66 57
-216.6824 103.62661 471.42859 88 65 55
-223.40341 106.55491 470.5 94 67 58
-221.49718 106.30125 471.55557 90 69 58
-219.77878 105.75821 472 89 70 59
-225.81451 108.99664 470.375 94 71 59
-224.02629 108.80312 471.66666 96 71 60
-222.25748 108.23692 472 94 70 61
-227.8976 111.06922 470 97 73 59
-226.44719 110.86818 471.14288 94 74 59
-224.4608 110.99104 472 96 74 61
-187.95294 89.422546 473 79 60 50
-185.98058 89.055595 473.25 78 59 50
-193.74884 91.906509 473 79 61 52
-191.05789 91.699501 473 81 62 51
-188.56953 91.333878 473.25 81 61 53
-186.49347 90.55336 473.5 81 60 52
-197.88878 93.976471 473 81 63 53
-196.37082 93.766708 473.33334 83 63 52
-193.85124 92.990944 473.25 82 62 52
-191.2565 93.057289 473.80002 83 63 51
-188.56561 92.83252 473.5 83 63 53
-200.37274 96.87442 473 81 65 57
-198.77039 96.226524 473.375 82 63 54
-197.47742 95.834625 474 84 62 53
-206.16864 99.151382 473 88 67 55
-203.68469 98.944389 473 88 65 54
-201.41034 98.479187 473.25 84 65 55
-199.54942 98.116699 473.66669 84 65 56
-211.24817 101.48218 473.25 86 65 53
-208.94727 100.60416 473.66669 86 66 56
-206.45895 100.74245 473.66669 89 69 59
-204.02954 100.68771 473.80002 89 66 59
-201.89453 100.53297 473.33334 90 67 58
-215.55249 104.05031 473 86 65 55
-213.67049 103.52282 473.11111 86 66 52
-212.11394 103.57184 473.33334 86 66 54
-220.24442 106.81026 473 89 72 60
-218.58847 106.39627 473 90 69 59
-216.43642 105.99125 473.5 89 68 58
-214.48703 105.3766 474 90 67 57
-222.72838 109.29422 473 95 72 63
-221.08531 108.62729 473.25 92 70 63
-219.24985 108.38104 473.83334 92 71 61
-217.3911 107.86581 474 92 72 58
-223.00438 110.39821 473 95 72 62
-221.22763 110.19981 473.33334 95 70 66
-219.88031 110.35503 474 96 71 65
-183.75876 89.384918 475 80 60 48
-181.32761 89.416428 475.16669 80 59 49
-178.89587 89.447647 475.33334 79 61 51
-176.50687 89.296951 476.75 78 62 52
-173.67761 89.343781 477 78 61 50
-93.518723 89.343781 477 80 61 54
-91.164879 89.496658 476.33334 85 59 51
-89.063408 89.478867 475.5 85 59 53
-86.474701 89.384911 475 85 59 53
-83.98024 89.384918 475 85 59 53
-81.485779 89.384918 475 84 57 53
-78.991318 89.384918 475 86 55 56
-76.465103 89.567093 476.28574 88 53 52
-73.478989 89.343781 477 89 54 48
-71.809013 89.343781 477 91 55 46
-187.91617 92.29512 475 81 62 54
-185.97604 91.740784 475 83 61 52
-183.84453 91.506813 475.22223 84 61 50
-181.32292 91.287483 476.25 81 61 50
-178.46098 91.197823 476.71429 80 62 53
-176.30185 90.775185 477.00003 79 61 54
-174.23425 90.457092 477 78 61 50
-93.518715 91.013756 477 81 60 53
-91.335846 91.334976 476.5 85 59 53
-88.990173 91.484825 475.11111 87 59 57
-86.474709 91.463631 475 87 60 55
-83.980232 91.463631 475 87 59 54
-81.485779 91.463631 475 87 57 51
-78.991318 91.463623 475 87 53 51
-76.310036 91.375633 475.72729 88 53 50
-73.728233 91.374084 476.53848 89 54 49
-71.391525 91.013748 477 91 56 49
-195.67673 94.512413 475 84 62 53
-193.5703 94.456985 475 84 63 52
-191.07584 94.456978 475 85 64 51
-188.88042 94.163193 475.33334 84 63 53
-186.35049 93.771042 475.85718 83 62 54
-183.65659 93.653725 476.625 83 62 53
-181.19252 93.518715 477 84 62 53
-179.3138 93.309967 477 84 62 53
-93.518715 93.518715 477 82 61 55
-91.476585 93.6465 476.80002 84 60 55
-89.115234 94.111938 475.77777 86 60 56
-86.495117 93.980064 475.11111 87 60 54
-83.980232 93.958084 475 89 57 52
-81.485779 93.958084 475 87 56 51
-78.991318 93.958092 475 86 54 49
-76.514542 93.979866 475.11111 88 54 48
-73.805313 94.029434 476.41669 90 55 47
-71.0784 93.623093 477 93 57 47
-197.89403 97.284042 475 86 63 53
-196.23103 96.452553 475 84 62 53
-193.91536 96.495941 475.66666 84 64 53
-191.2784 96.295258 476.57144 86 64 52
-188.54041 95.68969 477 84 63 54
-186.20245 95.18869 477 85 63 54
-184.53247 95.18869 477 85 62 54
-93.101227 96.023682 477 82 61 55
-91.252327 96.142967 477.00003 84 61 55
-88.891899 96.507828 475.85718 86 61 56
-86.439468 96.424759 475.375 88 60 56
-83.980232 96.452553 475 88 58 54
-81.485779 96.452553 475 87 55 54
-78.99131 96.45256 475 87 55 52
-76.496857 96.45256 475 88 55 51
-73.806656 96.389221 476.18182 89 56 47
-70.97403 96.023682 477 92 59 48
-200.80423 99.778496 475 85 66 55
-198.62158 99.050949 475 86 65 55
-196.27364 98.831688 475.77777 85 65 55
-193.88432 98.361649 477 85 65 55
-93.101227 97.693657 477 82 59 56
-91.013756 97.693657 477 83 60 56
-87.67379 97.693657 477 88 61 57
-81.277908 98.323395 475 86 57 56
-79.139336 99.13237 475.88889 88 55 51
-76.549942 99.016457 475.33334 88 56 50
-73.744133 98.882385 476.23077 88 59 50
-70.97403 98.528656 477 90 61 51
-210.78207 102.27296 475 87 66 55
-208.95755 101.98344 475.20001 87 66 57
-206.20891 102.27297 475 89 67 61
-203.9223 102.06509 475 90 68 59
-201.34077 101.50275 475.28574 92 67 54
-198.83057 101.29203 476.25 89 67 55
-196.77898 100.47695 477 86 65 58
-78.824142 100.92771 476.5 90 55 49
-76.491257 101.15511 476 91 56 52
-73.687683 101.21741 476.55557 90 59 53
-71.0784 100.92924 477 90 62 54
-211.19783 103.93594 475 87 66 55
-209.2618 103.9167 476.00003 88 68 58
-206.52852 103.86018 476.28574 89 67 61
-204.06244 103.69859 476.20001 90 68 59
-201.64638 103.4453 476.57144 93 68 55
-199.56226 102.70359 477 91 68 55
-75.775208 102.91234 477 91 58 54
-73.478989 103.30002 477.00003 90 59 56
-71.809013 103.12109 477 91 62 55
-215.63243 106.98473 475 91 70 59
-213.70061 106.59081 475.25 91 70 58
-211.41295 106.40182 476.11111 91 69 57
-208.74715 106.04355 477 90 70 59
-206.24217 105.20856 477 87 69 60
-204.5722 105.20856 477 88 69 60
-218.51492 109.42376 475 94 73 62
-216.34735 108.84959 475.125 93 72 60
-213.89252 108.82334 476.375 96 72 59
-211.25209 108.54851 477 94 73 62
-209.02548 108.27017 477 94 73 62
-218.84752 110.92043 475 97 72 64
-214.59206 110.21848 477 99 74 61
-171.29124 89.624725 478.5 79 61 50
-168.53641 89.718384 479 80 62 50
-166.85942 89.718384 479 81 60 50
-98.941765 89.718384 479 83 61 53
-96.224991 89.53109 478 80 62 56
-70.704453 89.531082 478 91 55 46
-68.756149 89.718384 479 92 57 49
-67.079163 89.718384 479 93 60 51
-175.83714 92.105484 478.33334 81 61 50
-173.32642 91.428841 478.625 79 61 50
-171.26147 90.766495 479 80 61 48
-166.85942 90.97612 479 80 60 50
-98.941765 91.395363 479 83 61 53
-96.292671 91.26815 478.33334 82 62 54
-70.286087 91.204552 478 92 57 50
-68.723854 91.352768 478.77777 92 58 52
-66.480247 91.515152 479.00003 93 62 52
-178.55132 93.952843 478.5 85 62 54
-176.43781 93.162315 478.60001 83 62 52
-174.40581 93.072342 479 82 62 50
-98.702202 94.030617 479.00003 84 60 54
-96.270111 93.758148 478.22223 83 61 54
-70.286079 92.878029 478 94 58 50
-68.644112 93.758148 478.22223 93 61 51
-66.240669 93.910835 479 93 63 53
-64.56369 94.749313 479 94 65 53
-188.78268 97.112488 478.25 86 64 55
-186.16145 96.670364 478.42859 85 63 55
-183.51944 96.369278 478.71429 85 63 52
-181.34306 95.767532 478.5 86 62 53
-98.103271 96.426292 479 84 59 55
-96.292671 96.292084 478.33334 83 60 56
-94.551514 96.224991 478 82 61 56
-68.628357 96.247154 478.11111 93 62 51
-66.240677 96.426285 479 93 63 53
-64.56369 96.845535 479 93 64 55
-193.36128 99.361885 478.60001 87 64 54
-191.36584 98.709915 478.77777 88 64 55
-188.86975 98.312897 479 87 64 57
-186.14468 98.103271 479 86 65 58
-95.388252 97.89846 478 82 61 55
-94.551514 97.89846 478 82 60 56
-68.612602 98.735207 478 93 63 51
-66.194191 98.872719 478.66666 92 64 53
-64.228294 98.774071 479 92 64 54
-196.2619 101.69224 478.625 89 66 57
-194.11195 101.06788 478.85718 87 66 54
-192.0141 100.61874 479 86 65 53
-70.286079 102.08216 478 93 62 54
-68.612602 101.24542 478 93 63 52
-66.225113 101.4335 478.88889 92 64 51
-64.354065 101.66685 479 93 63 52
-200.60818 103.86417 478.5 91 68 55
-198.7234 103.38348 478.60001 90 67 55
-195.92705 103.41372 479 91 67 59
-194.52956 103.55346 479 90 68 61
-72.796295 104.59238 478 93 60 56
-70.883751 103.87518 478.00003 92 62 53
-68.692154 103.87681 478.55557 93 63 51
-66.480247 103.85293 479.00003 93 63 52
-64.56369 103.13422 479 93 64 54
-207.51128 106.68422 478 89 71 59
-206.47192 106.79626 478.5 89 71 59
-203.33371 105.64968 479 91 69 61
-71.171837 105.50264 478.33334 91 61 51
-68.923843 105.98508 479 91 62 52
-208.14145 109.0932 478.16669 95 72 62
-206.39563 108.21825 478 94 71 60
-214.20518 110.44955 478 100 75 62
-211.27661 110.44955 478 98 76 64
-165.9474 89.905685 480 79 58 50
-163.8468 89.905685 480 79 59 49
-100.8288 89.905685 480 85 61 52
-65.958847 89.905685 480 93 60 52
-171.40897 91.866257 480 81 61 50
-168.88824 91.166046 480 80 61 49
-166.03143 91.418129 480 81 59 50
-163.55058 91.173447 480.77777 81 59 51
-161.32407 90.920982 481.66669 80 59 50
-159.33437 90.711624 481.60001 83 60 51
-102.79404 90.997421 481.33334 83 62 51
-101.36946 91.399864 480.28574 83 61 52
-65.538719 91.166046 480 94 62 52
-64.043159 91.205833 480.81821 93 62 53
-62.112408 91.622925 481.66669 93 62 53
-178.13087 94.947121 480 86 63 55
-175.97604 94.302948 481 83 63 52
-173.38965 93.849571 480.83334 81 61 51
-170.96338 93.482735 481.11111 82 62 50
-168.54735 93.485458 481.125 82 60 48
-166.11197 93.340675 481.00003 84 58 50
-163.22012 92.878036 481.25 82 61 51
-103.17973 93.493042 481.16669 82 60 52
-101.24963 94.016907 480.39999 83 60 53
-99.988556 93.686768 480 84 60 54
-63.686111 93.848206 480.11111 93 65 53
-61.618042 93.639061 481.375 94 64 55
-59.905609 94.498993 482 95 64 54
-184.85281 97.467842 480 86 63 56
-181.25903 97.148376 480.5 86 62 56
-178.68855 96.078949 480.85718 87 61 56
-176.36899 95.45433 481.5 85 63 52
-173.81064 95.553665 482 83 62 50
-171.37711 95.809418 481.80002 83 63 51
-167.55612 95.144936 481 84 59 50
-103.78015 97.030212 482 83 60 53
-101.35483 96.307266 480.5 84 60 53
-99.568443 96.627609 480 84 59 53
-63.618176 96.507576 480.00003 94 64 54
-61.523598 96.114891 480.80002 94 65 54
-59.543262 96.314964 481.80002 95 63 55
-190.73448 99.988556 480 88 65 53
-188.88596 99.652458 480 88 64 55
-186.32875 98.935265 480.71429 86 64 57
-183.74475 99.037163 481.5 85 64 57
-180.93382 98.216713 481.20001 85 63 56
-179.20175 98.245071 481.75 88 62 55
-177.18561 97.873955 482 90 63 54
-103.21765 98.155205 482 82 58 53
-101.53017 98.163956 480.66669 83 58 54
-99.988556 98.308083 480 83 58 56
-63.228062 99.358376 480 93 64 53
-61.327675 98.566719 480.75 92 64 54
-59.249672 98.750458 481.57144 94 64 54
-193.2552 101.66904 480 86 66 54
-191.40668 101.33295 480 86 65 53
-188.79866 101.27265 480.77777 88 67 54
-186.48924 100.82793 481.33334 86 65 57
-183.93555 100.40518 482 85 65 54
-63.438122 101.24892 480 94 63 52
-61.450916 101.01553 480.88889 94 61 53
-59.120728 101.27563 481.625 92 62 54
-198.29663 104.18976 480 90 67 56
-197.03278 103.98204 480.33334 90 67 59
-193.67534 103.34952 480 88 68 57
-191.31973 103.43925 480.41669 88 67 56
-188.64928 103.58897 481.11111 90 67 57
-187.3105 103.35828 482 91 67 57
-65.538719 104.18976 480 92 63 55
-63.578163 103.62961 480 92 63 54
-61.422127 103.49307 480.66666 93 63 52
-58.979595 103.63661 481.33334 90 61 53
-203.05917 106.57803 480.66669 91 71 60
-201.32011 105.9632 480.80002 91 69 58
-198.70976 106.09081 481 90 69 58
-196.36632 106.18009 480.85718 91 69 59
-194.16956 105.83504 481.11111 90 69 60
-190.96346 105.58562 481 90 68 59
-189.01199 105.56872 481.5 91 69 57
-68.059448 106.71048 480 92 62 53
-66.258934 106.11031 480.00003 90 63 52
-63.858242 105.87024 480 91 63 53
-61.436523 106.04199 480.77777 93 62 52
-58.952759 106.11513 481.11111 90 61 52
-57.374393 106.73323 482 89 61 54
-201.57217 108.20156 481.39999 95 72 57
-199.04306 108.20121 481.39999 95 72 60
-68.059448 107.55072 480 90 63 54
-66.210922 107.88682 480 91 63 51
-63.961712 108.56699 480.77777 92 62 51
-61.465305 108.61677 481 91 62 51
-58.939339 108.61677 481 90 62 52
-56.893002 108.72969 481.5 90 62 54
-61.345032 110.90219 481.00003 91 62 52
-58.939339 111.14275 481 91 62 52
-56.562157 111.2294 481.375 90 63 52
-58.578735 112.94402 481.5 91 63 53
-56.952522 113.48316 482 89 62 53
-161.06615 92.158577 483 82 61 51
-158.44511 91.482185 483 84 59 50
-156.22545 91.459175 483.36365 84 60 50
-154.37367 90.874893 483.66669 83 60 50
-151.65631 90.6549 484 79 61 49
-108.02335 90.6549 484 81 61 51
-106.05356 91.42112 483.57144 81 59 52
-104.33367 91.313087 483 83 61 51
-62.566368 90.467606 483 94 61 51
-60.769707 91.207397 483 94 61 55
-58.822052 91.407616 483.5 93 62 56
-166.1391 94.695053 483 86 59 51
-164.19447 94.356865 483 85 60 52
-161.48889 93.849571 483 82 61 52
-158.96761 93.820587 483.33334 85 62 50
-157.00061 93.100342 483.5 86 62 50
-105.85056 93.360291 483.75 82 59 52
-104.84096 93.849564 483 82 60 52
-60.311733 93.285904 483 94 63 56
-58.474365 94.004044 483.25 95 62 56
-177.97597 97.231529 483 87 62 55
-175.86223 96.808792 483 86 64 52
-173.60759 96.949699 483 84 63 49
-171.4234 96.808784 483 83 63 51
-169.08177 96.61866 483.22223 83 60 50
-166.43625 96.22477 483.25 86 59 51
-163.72078 95.828674 483.60001 89 61 52
-160.76418 95.950157 484 87 62 53
-159.28151 95.73835 484 86 63 53
-103.48817 96.216934 483 83 60 52
-58.550289 96.174667 483 94 63 55
-56.811821 96.591499 483.5 95 64 57
-182.62617 99.767998 483 84 66 55
-180.93521 99.767998 483 85 63 55
-178.2578 99.204338 483 88 63 55
-176.10446 98.894066 483.375 88 65 54
-173.86813 98.991074 483.33334 84 64 53
-171.4556 98.920128 483.36365 84 63 54
-168.60117 98.788414 484 85 62 55
-107.59973 98.280075 484 79 58 50
-105.68644 98.077019 483 83 59 51
-104.84096 98.077019 483 82 60 52
-58.338917 98.499763 483 95 65 54
-56.501766 99.048027 483.20001 94 64 53
-185.83904 101.96628 483 86 65 56
-183.35091 101.45898 483.00003 85 65 52
-180.93521 101.03624 483 86 63 55
-178.46056 101.07125 483.16669 87 65 57
-176.55894 101.19334 483.75 86 66 55
-173.40219 101.10422 484 84 64 55
-171.99013 100.8218 484 84 64 56
-58.338917 100.61349 483 93 65 53
-56.361168 101.42017 483.18182 92 62 52
-186.13593 103.22115 483.33334 89 66 55
-184.28972 103.00993 483.66669 87 66 53
-181.47925 102.85519 484 86 67 56
-178.55626 102.7281 484 86 68 59
-56.272888 103.87322 483.41669 88 61 51
-56.109554 106.2046 483.22223 89 60 51
-54.590221 106.64178 483.5 89 60 50
-201.22697 109.70253 483 98 73 61
-55.802441 109.06841 483 90 63 54
-54.085045 108.86266 483.45456 87 61 52
-202.91797 110.75939 483 98 75 62
-201.64972 110.75939 483 98 74 63
-55.802441 111.60488 483 90 63 52
-53.823742 111.41583 483.18182 88 62 52
-52.051121 111.71998 483.5 89 61 51
-55.802441 113.71861 483 89 62 53
-54.111454 114.14136 483 89 63 53
-51.746971 113.86543 483.625 91 61 53
-53.547802 116.11418 483 90 66 55
-51.535378 116.0877 483.625 91 65 55
-49.987278 116.9194 484 92 66 55
-51.310661 118.12813 483.16669 92 67 54
-49.56366 118.61389 484 93 67 55
-50.834522 120.30837 484 95 68 56
-49.56366 120.73199 484 96 67 56
-153.24315 91.266701 485 81 61 49
-150.95087 91.351601 485 81 60 49
-148.62448 91.29821 485.16669 81 60 47
-146.32721 91.455185 486 82 61 47
-143.72598 91.423668 485.83334 82 61 49
-141.22336 91.45488 486 81 60 50
-138.67084 91.455185 486 80 60 50
-136.87335 91.438538 486.66669 81 62 49
-123.61156 91.429932 487 82 60 51
-121.41818 91.59623 486.75 82 61 48
-119.14488 91.486389 486.16669 84 60 46
-116.63144 91.517906 486.33334 82 59 48
-113.99957 91.45488 486 83 57 51
-111.44735 91.45488 486 84 58 51
-108.8833 91.478951 485 81 60 51
-57.731495 91.266701 485 92 62 55
-56.544655 91.407616 485.75 92 60 55
-156.04483 93.898575 485 84 62 51
-153.77286 93.453941 485.33334 83 61 51
-151.2934 93.496933 485.55557 85 60 50
-148.9305 93.188751 486.16669 85 60 49
-146.73882 93.224632 486.80002 85 61 47
-143.9725 93.284447 486.66669 84 63 49
-141.36865 93.252647 486.5 83 62 51
-139.33398 93.078758 486.33334 82 61 51
-123.61156 92.921791 487 82 61 52
-120.84096 93.561165 487 84 59 51
-118.67015 93.232643 486.71429 85 59 50
-115.90511 93.74704 486.85718 82 58 51
-113.89003 93.570747 486.57144 80 58 51
-111.44733 93.581749 486 79 59 50
-108.67104 93.389175 485 80 60 52
-106.97306 94.238174 485 82 58 53
-57.731495 92.964691 485 92 62 57
-56.147877 93.581734 486 92 62 57
-163.85556 96.785149 485 89 62 52
-161.73309 96.785149 485 88 61 53
-158.58109 96.297859 485.75 86 62 52
-156.21675 96.112961 485.88889 85 62 53
-153.96674 95.788361 486.71429 83 62 52
-151.74385 95.479271 487 85 60 54
-115.08662 95.479271 487 80 59 50
-113.67608 96.122055 486.80002 79 58 50
-111.32053 96.02388 485.44446 78 59 48
-108.67104 95.936157 485 78 61 51
-106.12408 95.936157 485 82 59 52
-55.76947 95.685837 485.16669 95 64 59
-54.559586 96.758011 487 95 65 57
-168.94952 99.332123 485 85 62 58
-166.27107 98.762825 485.44446 87 61 54
-164.0242 98.160179 485.5 86 61 51
-161.3026 98.386116 485.71429 84 63 52
-159.54642 98.051933 485.66669 86 62 53
-156.0063 99.741745 487 88 63 51
-120.20158 98.889244 487 82 59 53
-119.34909 98.889244 487 82 59 53
-113.14883 97.835449 486 79 58 49
-111.21802 97.634148 485 78 58 49
-108.67104 97.84639 485 78 59 51
-106.33632 97.846397 485 82 58 51
-55.184521 98.483139 485 96 65 55
-54.021599 98.685608 486 96 63 52
-175.74146 101.03011 485 85 67 57
-174.32646 101.59612 485 85 65 55
-171.2135 101.31311 485 84 64 56
-168.67003 101.24094 485.55557 88 64 56
-166.85883 100.45653 486.33334 88 63 55
-136.39899 100.59423 487 83 62 51
-134.69398 100.59423 487 83 62 52
-53.559074 101.16859 485.66666 92 61 52
-183.35088 104.28664 485.66669 87 66 53
-181.11841 104.14309 485 86 67 55
-179.56192 103.5771 485 86 69 58
-176.59045 103.1526 485 85 67 57
-174.04349 103.1526 485 87 66 57
-171.49651 103.1526 485 88 67 57
-53.522705 103.64828 485.33334 90 59 52
-51.966515 103.93243 486.66669 89 61 50
-53.243965 106.00279 485.00003 89 59 51
-51.317158 106.5267 486.28574 89 59 52
-52.637539 108.67105 485 87 60 50
-50.962502 108.72063 485.22223 88 59 50
-48.754925 109.64563 486.5 89 60 49
-50.696983 111.09675 485.00003 88 60 51
-48.436531 111.31955 485.44446 87 59 50
-46.081917 111.63924 486.375 85 60 49
-50.302807 113.55275 485 90 61 54
-48.392574 113.76501 485 89 60 54
-45.974915 113.71731 485.25 88 61 52
-43.538975 113.72541 486.23077 86 60 50
-41.537617 114.17505 486.75 85 58 49
-50.090557 115.88748 485 92 63 55
-48.392578 116.31199 485 92 63 56
-46.270096 116.31198 485 93 62 54
-43.782486 116.4717 485.66669 91 63 53
-40.868752 116.22147 486.39999 87 60 50
-38.748196 117.09708 486.5 87 59 51
-36.441559 117.15816 486.39999 86 57 50
-34.294922 116.94435 486.75 85 56 47
-47.968079 118.85896 485 93 66 57
-46.270096 118.85896 485 94 64 56
-43.767319 118.98148 485.5 93 64 55
-41.26104 119.10403 486 91 61 52
-39.134178 119.10402 486 89 60 51
-36.581951 119.10402 486 88 60 51
-33.964954 118.83859 486.18182 85 58 48
-31.767326 119.1568 486.71429 84 58 49
-29.512848 119.75288 486.33334 81 58 51
-48.150009 121.28467 485.00003 95 66 56
-46.270096 121.40594 485 93 64 55
-43.854801 121.37411 485.18182 93 64 58
-41.26104 121.23089 486 92 61 54
-38.902115 121.20564 486.14288 90 60 53
-36.4118 121.31596 486 89 60 52
-34.029724 121.23088 486 87 58 50
-31.505001 121.15487 486.42859 86 59 51
-29.095411 121.31596 486 85 58 52
-26.853546 121.90657 487 84 56 50
-24.722311 121.90657 487 85 57 49
-45.845596 123.10392 485 94 63 56
-43.503429 123.0353 485.39999 93 65 58
-41.26104 122.93237 486 92 62 55
-38.859154 123.38614 486.11111 91 60 54
-36.475605 123.2514 486 89 61 52
-34.02272 123.50215 485.89999 91 60 51
-31.477491 123.35773 486 91 61 53
-28.912039 123.30115 485.77777 91 60 52
-26.415043 123.55477 486.77777 87 58 48
-24.113386 123.73335 487.00003 85 58 49
-22.164831 124.46405 487 88 59 54
-33.178978 125.05922 486 93 63 56
-31.477491 125.05923 486 93 64 58
-28.766668 125.45133 486.20001 95 63 58
-26.305513 125.92549 487.00003 92 63 54
-23.869818 126.16904 487 89 61 55
-21.596502 126.45322 487 89 60 56
-23.017326 128.30026 487 93 64 56
-21.31234 128.30028 487 92 62 54
-19.607349 128.30026 487 93 62 54
-136.10956 91.973618 488 80 61 50
-134.11633 91.831238 488 79 60 49
-131.55359 91.831238 488 80 60 48
-128.99084 91.831238 488 80 61 50
-126.42812 91.831238 488 80 62 51
-123.86539 92.258354 488 82 60 52
-55.52586 91.831238 488 92 62 55
-54.727634 91.924881 488.5 92 62 55
-150.34695 94.821091 488 87 59 51
-148.63846 94.821091 488 88 62 50
-146.07573 94.607529 488 87 61 49
-143.513 94.821091 488 86 63 51
-140.95026 94.821091 488 84 62 52
-138.38756 93.824478 488 81 61 49
-136.05098 93.663666 488.20001 79 60 50
-133.66196 93.588493 488.57144 79 60 48
-131.2608 93.636002 488.5 79 58 47
-128.80989 93.777359 488.125 83 61 49
-126.25726 93.454308 488 83 62 51
-123.86537 94.073631 488 81 61 52
-121.72977 94.393974 488 82 59 53
-118.73993 94.821091 488 82 59 52
-117.03143 94.821091 488 82 59 50
-54.374035 93.872673 488.39999 92 63 55
-153.55035 97.170258 488 82 63 52
-151.09441 96.63636 488 85 60 53
-148.79016 96.201065 488.5 86 62 52
-146.32547 96.266716 488.83334 85 63 52
-143.61133 96.168396 488.33334 84 63 51
-141.04654 96.168396 488.33334 83 63 51
-138.4928 95.929146 488.75 82 62 51
-136.22542 95.626816 489.00003 82 62 52
-133.53514 95.626816 489.00003 82 60 50
-130.96716 95.44339 489 81 60 47
-128.22798 95.528984 489 85 61 48
-126.25919 95.871391 489 83 61 50
-123.86537 96.422791 488 82 61 52
-121.30267 96.422791 488 82 59 53
-118.73994 96.529579 488 82 58 52
-116.28397 96.636353 488 81 58 49
-114.4687 97.38382 488 80 58 50
-54.032337 96.0951 488.39999 94 64 56
-164.01486 99.946556 488 85 63 51
-161.87924 99.946548 488 84 64 50
-158.64534 99.092308 488.00003 86 61 53
-156.4942 98.876991 488.14288 86 61 54
-153.6963 99.01091 488.125 83 62 53
-151.45911 98.833817 488.83334 81 63 53
-149.5137 97.868706 489 84 61 53
-146.37506 97.583374 489 85 63 52
-143.80708 97.583374 489 84 62 51
-141.23911 97.583374 489 83 63 51
-139.52711 97.583374 489 83 63 51
-134.11632 99.946548 488 84 61 51
-132.40782 99.092308 488 84 57 53
-125.83118 97.583374 489 83 61 51
-124.0827 98.655182 488.85718 82 62 53
-121.62335 98.358849 488.60001 82 61 53
-118.56907 98.579765 488 82 58 52
-117.03143 98.238068 488 81 57 50
-52.99931 99.159416 488.33334 95 63 52
-166.36403 101.44148 488 87 64 54
-164.07059 101.26263 488.16669 85 64 53
-161.23068 101.14367 488.625 85 64 53
-156.1481 101.15411 488.33334 88 64 55
-154.15605 101.22216 488.85718 85 64 52
-152.36703 101.00735 489 82 64 50
-139.52711 101.00735 489 84 62 53
-133.39816 100.47608 488.5 83 60 54
-132.40782 101.22792 488 83 60 57
-127.97118 101.86335 489 87 61 53
-51.948277 101.11764 488.5 94 61 53
-170.8488 103.36353 488 89 66 57
-169.05515 103.68358 488.16669 90 66 59
-166.62634 103.27176 488.14288 88 66 57
-164.03966 103.04202 488.5 87 65 55
-161.6721 102.64932 488.66669 85 66 54
-157.50298 102.71934 489 89 68 57
-156.05882 102.61431 488.5 91 65 57
-153.99744 102.893 488.20001 87 64 54
-152.36702 102.71934 489 85 65 51
-51.040081 103.30177 488.28574 91 61 51
-50.61396 105.71271 488 90 60 51
-48.873524 106.19563 488.75 89 60 51
-46.223705 106.99931 489 90 61 52
-43.227722 106.99931 489 91 60 53
-48.585129 108.38223 488 89 58 51
-46.170998 108.58723 488.44446 89 59 50
-43.625961 108.63663 488.66666 90 60 51
-41.068874 108.66152 488.77777 88 59 51
-38.519753 109.13931 489 87 59 51
-36.807766 109.1393 489 86 59 51
-45.915619 110.41104 488 88 60 48
-43.566444 111.05173 488 86 60 49
-41.003716 111.05172 488 86 59 49
-38.449539 111.07681 488.11111 86 58 49
-36.040173 111.32895 488.75 82 57 49
-33.383785 112.13528 489 80 58 50
-40.718971 113.3297 488 85 58 47
-38.440979 113.61445 488 84 57 49
-35.87825 113.61445 488 81 57 50
-33.588848 113.59145 488.42859 80 57 49
-31.532194 113.8372 488.5 81 56 50
-29.389145 114.1326 489 84 56 50
-26.963829 114.70326 489 86 58 50
-23.967848 113.84727 489 87 57 50
-38.440983 115.75006 488 84 58 49
-35.87825 115.75006 488 84 57 50
-33.742638 115.75006 488 84 56 48
-31.607025 116.17719 488 82 56 47
-29.050714 116.20345 488.11111 82 55 48
-26.517744 116.33531 488.66666 84 58 50
-24.090132 116.65983 489.00003 84 57 53
-21.82786 117.27126 489 84 57 54
-31.179907 118.31281 488 83 56 48
-28.937515 118.63314 488 81 56 49
-26.481567 118.73992 488 82 56 50
-23.924473 118.76676 488.11111 83 57 50
-21.637932 118.82595 488.85718 85 57 51
-28.190052 120.87553 488 81 56 52
-26.359531 121.0586 488.00003 82 56 51
-23.812054 121.19588 488 85 57 49
-21.370298 121.38513 488.33334 89 57 50
-19.402542 122.12189 489 91 58 52
-23.064589 123.43826 488 87 58 50
-21.249319 123.75859 488 90 58 52
-18.924 124.13058 488.625 90 59 54
-16.477894 124.76119 489 91 60 56
-20.786606 125.85863 488 88 60 56
-18.793369 126.42812 488 91 60 54
-16.357985 126.48259 488.625 91 60 53
-14.551907 126.25919 489 89 62 54
-18.280823 128.81999 488 94 62 53
-16.148363 128.84608 488.10001 95 61 54
-14.337908 128.61316 489 93 61 55
-14.123909 130.11116 489 96 61 59
-53.28756 91.966026 491 91 61 55
-51.674763 92.153336 492 91 60 53
-53.108425 93.47847 490.66669 92 61 53
-51.92625 93.525139 491.66669 91 60 52
-135.95261 96.925194 490 83 62 52
-133.80823 96.925194 490 82 61 50
-131.23499 96.925194 490 83 60 50
-128.66174 96.925194 490 84 60 50
-53.01915 95.950165 490.5 94 62 54
-51.782711 96.680992 491.66669 93 61 52
-150.10539 99.498421 490 80 63 53
-148.38989 98.88575 490.00003 83 64 54
-146.24553 99.06955 490 84 62 51
-144.10117 99.06955 490 84 62 51
-141.52794 99.06955 490 86 63 50
-138.84747 98.747902 490 84 62 50
-136.38148 98.640678 490 84 61 51
-133.91545 98.533463 490 83 60 50
-131.23497 98.640678 490 83 58 52
-128.66174 98.640678 490 84 60 51
-126.60317 98.812225 490 83 61 51
-53.180195 97.782928 490 94 64 53
-51.580235 98.864159 491.11111 94 63 53
-49.952271 99.473923 492 94 63 53
-160.39833 102.07166 490 86 64 55
-158.85437 101.55702 490 88 63 56
-150.99716 101.23707 490.11111 81 64 50
-148.52429 101.3063 490.44446 83 64 52
-146.23178 101.45523 490.57144 86 64 53
-144.21407 101.26227 490.75 86 64 55
-141.52794 100.78503 490 85 63 53
-138.9547 100.35617 490 84 62 51
-136.38147 100.35617 490 84 60 51
-131.3542 101.30611 490.44446 85 59 56
-128.82205 100.99861 490.14288 86 60 52
-126.66036 100.64209 490 85 62 51
-50.991367 101.12498 490.39999 95 62 54
-49.057766 101.55798 491.66666 95 63 56
-46.476067 101.98822 491.66669 90 62 53
-44.467369 102.13176 491.66669 87 61 49
-160.97015 103.50124 490 86 66 55
-159.54057 102.92941 490 87 66 56
-151.06525 102.99942 490.33334 86 64 51
-48.946312 103.90443 490.55557 90 60 52
-46.360435 103.88071 490.44446 90 60 54
-43.804127 103.92759 490.66666 89 61 53
-42.143875 104.06898 491.33334 89 62 52
-48.033722 105.50264 490 89 61 52
-46.318233 105.93152 490 90 61 52
-43.867535 106.11533 490.00003 90 60 53
-41.614639 106.39627 490.16669 89 60 51
-38.442383 106.91845 490.20001 88 60 50
-36.958305 107.43694 491 86 60 52
-33.520321 107.43694 491 88 60 49
-38.598526 108.07589 490 87 61 52
-35.780224 108.81109 490.00003 85 60 51
-33.567589 109.06863 490.125 85 59 48
-30.983269 109.30414 491.66669 86 59 48
-29.282368 109.37825 492 85 59 50
-35.167549 110.64911 490 82 61 49
-33.452057 111.07799 490 81 58 49
-30.930899 111.26559 490.83334 82 58 50
-28.552582 111.37136 491.30002 82 59 51
-26.314833 111.59724 490.875 85 58 51
-24.117865 111.4027 490.30002 85 58 50
-21.765425 111.55295 490.83334 84 57 49
-18.947411 111.96198 492 86 57 48
-17.22492 111.96198 492 85 56 50
-28.591503 113.50826 490 83 57 51
-26.467564 113.83503 490.00003 86 58 50
-24.016861 114.08009 490 87 56 50
-21.388884 113.89391 490.54547 85 56 49
-18.94294 113.65861 491.88889 86 55 49
-16.609745 113.68447 492.00003 85 57 50
-23.58799 115.79558 490 86 57 53
-21.443626 116.22446 490 86 56 52
-18.933992 116.18944 491.66666 85 54 50
-16.609747 116.39126 492.00003 83 55 49
-20.585882 118.36882 490 87 57 51
-18.91279 118.63663 491.11111 86 56 51
-16.355894 118.79808 491.77777 86 56 51
-13.887593 118.95961 492 86 55 52
-12.057445 119.28258 492 88 54 51
-20.585882 120.0843 490 90 57 51
-18.767769 120.86546 490.125 88 57 51
-16.326332 121.16087 490.88889 86 58 53
-13.773519 121.38046 491.77777 88 57 53
-11.48328 121.72278 492 88 57 54
-18.012646 123.08641 490 91 57 53
-16.189939 123.40807 490 91 58 54
-13.742009 123.68274 490.66666 92 58 52
-11.185696 123.90701 491.55557 90 59 55
-8.8995419 124.16298 492 90 59 54
-13.482602 126.0025 490.14288 91 61 53
-11.167802 126.28809 490.77777 91 60 53
-8.6103201 126.57438 491.88889 90 60 54
-13.209273 128.4902 490 93 60 56
-11.157688 128.74928 490.33334 94 60 56
-8.7272434 128.82831 491.57144 93 59 54
-12.866176 130.37724 490 96 61 59
-11.154186 130.85046 490.16669 95 60 60
-8.608182 131.13678 491.77777 94 59 58
-8.1818371 132.63188 492 96 62 60
-50.916794 92.34063 493 90 61 53
-50.805462 93.662254 493.60001 91 61 51
-50.632862 96.081795 493.60001 92 62 52
-50.053799 97.950104 493 91 63 52
-48.508984 98.639145 493.75 92 62 51
-48.359901 100.17529 493.33334 95 62 53
-46.466675 100.70662 493.39999 91 62 54
-44.87582 100.97059 493 88 61 53
-25.077663 109.82287 494 84 59 52
-20.711918 111.32655 493 85 58 50
-19.417421 111.75805 493 86 58 48
-13.835952 114.14661 494 88 56 49
-15.544441 115.71914 493.33334 84 55 50
-13.904382 116.33998 493.63638 84 56 51
-11.506621 117.07986 493 85 55 52
-12.944948 118.23053 493 86 54 54
-11.01152 118.8596 493.375 86 55 51
-9.5122166 119.33509 494 86 56 51
-10.643625 121.10718 493 88 56 53
-9.0766335 121.02345 493.83334 88 57 52
-8.6299658 122.97701 493 89 58 54
-7.7669687 125.1345 493 90 60 54
-6.9039721 126.86048 493 90 58 53
-6.2942986 128.85907 493.57144 91 57 53
-6.0485616 131.35284 493.66666 93 58 55
-6.2181268 133.35448 493.39999 95 61 57
-50.256855 94.448235 495 92 61 51
-48.56665 93.665558 495.44446 91 60 52
-50.256855 95.314735 495 92 62 51
-48.523861 96.181236 495 92 62 51
-46.916908 96.439133 496.33334 93 61 51
-47.657368 97.914215 495 93 63 53
-46.574242 98.780716 495 92 62 51
-14.730458 114.37767 495 88 57 49
-12.997462 115.24417 495 87 56 51
-5.1989851 129.10812 495 91 57 52
-47.013176 94.465729 501.99997 92 61 53
-45.786079 94.213669 503.00003 91 63 53
-44.509094 94.30732 503.5 91 62 52
-47.547089 95.974678 503.00003 93 60 51
-46.17469 96.22744 503.39999 93 60 50
-44.994854 95.72435 504 91 61 51
-46.22633 97.735672 503.00003 93 61 51
-43.316124 94.588272 505 92 63 52
-41.629227 94.775574 506 92 63 52
-39.93766 94.962891 507.00003 95 64 53
-45.084126 97.24028 505 92 62 49
-43.59296 96.537582 505.28574 90 62 51
-41.629223 96.104202 506 91 63 51
-39.93766 96.294144 507.00003 94 64 53
-45.841846 99.260872 505.00003 92 61 54
-43.415611 98.794434 506.16669 92 62 53
-41.712673 98.069145 507.00003 92 62 53
-45.968132 100.77628 505 92 63 54
-44.287647 100.09009 505.99997 92 62 55
-38.682556 96.039444 508.00006 96 64 54
-37.021675 96.115067 508.39999 96 64 54
-40.651611 98.834251 508.00006 92 62 53
-38.707932 98.772545 508.33337 92 63 54
-37.422192 98.456009 509 93 63 55
-43.128822 100.48571 508.00003 92 63 54
-41.188389 100.85681 508.75 91 62 52
-39.204201 100.68351 509 91 61 52
-36.031128 96.182976 510.33334 97 64 53
-33.991211 96.159348 510.99997 95 64 53
-31.307693 96.159348 510.99997 94 64 53
-28.660938 96.284805 511.66669 94 64 52
-36.364304 98.810181 510.83331 92 63 54
-33.991207 98.395607 510.99994 91 63 54
-31.307695 98.395607 510.99994 93 63 53
-28.785004 98.452286 511.875 94 63 54
-40.659737 101.87385 510.5 91 62 53
-38.44492 101.70055 510.75 90 63 53
-36.418655 101.07938 511.00003 91 63 54
-34.013386 101.14566 511.33334 89 61 54
-31.341536 101.1896 511.55557 90 62 53
-29.128323 100.38068 512 93 64 51
-38.488533 103.38308 511.33334 90 62 53
-36.29837 103.51758 512 89 61 53
-34.505859 103.06945 512 89 61 54
-26.075451 96.661156 513.66669 93 63 52
-23.843559 96.723877 514 93 63 51
-27.838203 99.678726 513 93 64 54
-26.087118 98.951881 513.88892 92 63 55
-23.933537 98.793327 514 92 61 53
-28.757917 101.55351 513.40002 93 64 51
-26.092955 100.77279 514 93 62 52
-24.293442 100.77279 514 93 61 53
-35.022255 104.16875 513 89 63 53
-33.675247 103.71976 513 89 61 53
-28.342346 102.5723 514 93 63 52
-35.022255 105.06676 513 89 61 53
-22.537687 96.912064 515 95 63 52
-21.185427 96.912064 515 97 62 51
-19.165787 96.733513 515.25 96 61 54
-16.268564 96.711052 516.33337 94 62 56
-13.57513 96.835922 517 92 61 54
-11.312607 96.835922 517 91 58 54
-9.050086 96.835922 517 91 57 52
-22.537687 98.715073 515 93 63 52
-21.205996 98.811348 515.5 95 63 54
-18.978674 98.509903 516.28577 95 61 56
-16.516405 97.967186 517 94 61 57
-14.027633 97.740929 517 93 63 54
-23.010323 100.61567 515.5 92 61 53
-21.2677 100.45596 517 94 62 55
-9.0675907 97.023216 518 90 57 51
-6.3473139 97.023216 518 88 55 49
-3.6270366 97.023216 518 86 55 48
-1.3601387 97.023216 518 89 59 52
0.90675914 97.023216 518 88 61 55
3.632288 97.148087 518.66669 94 64 56
6.3595667 97.210526 519 96 65 59
-18.135181 99.7435 518 94 63 55
-16.14031 99.380798 518 94 61 55
-13.47185 99.09581 518 93 61 52
-11.334488 98.836746 518 92 59 52
-9.0675898 98.836746 518 93 58 51
-6.3473139 98.836739 518 92 58 49
-3.6270366 98.383362 518 89 57 48
-1.3601387 98.383362 518 92 59 51
0.90705085 98.415154 518.16669 93 62 55
3.6327255 98.298889 518.75 96 66 56
-21.308838 102.0104 518 94 63 55
-19.155287 101.44367 518 94 61 54
-16.623915 101.25476 518 94 62 53
-13.601386 100.65026 518 95 62 51
-11.334488 100.65026 518 97 59 50
-9.0675907 100.65026 518 97 58 51
-20.855457 103.37053 518 95 65 55
-18.824003 103.1933 518.25 95 62 55
-16.790794 103.01605 518.5 95 62 54
8.6474705 97.397827 520 96 66 59
10.92312 97.397827 520 96 67 57
2.7307801 99.218338 520 98 65 56
6.37182 98.30809 520 98 67 60
8.6474705 98.30809 520 99 68 60
10.930706 98.371117 520.33337 99 69 59
13.497757 97.949944 521 98 66 56
0 0 0 1 0 0 0 1 0 0 0 1 0 0 0 0 0 1245 1 0 0
