-18.453770 18.453772 501.999939
-16.256893 18.453772 501.999969
-14.169859 18.563614 501.999969
-11.533607 18.563614 501.999969
-8.963260 18.981022 501.999969
-7.030008 19.332521 501.999969
-0.878751 19.332521 501.999969
0.987282 18.544796 501.500000
3.506641 18.408451 500.777771
6.144839 18.433739 501.444458
8.787510 18.453770 501.999939
11.423763 18.453770 501.999939
14.060016 18.453772 501.999939
16.256893 18.453772 501.999969
18.453770 18.453772 501.999939
21.090023 18.453770 501.999939
23.726278 18.453770 501.999939
26.362528 18.453770 501.999939
28.471531 18.629522 501.999969
-60.633820 21.090023 501.999969
-58.766468 20.980179 501.999969
-56.240059 21.090023 501.999939
-53.603809 21.090023 501.999939
-50.967556 21.090023 501.999939
-48.770683 21.090023 501.999969
-46.573799 21.090025 501.999939
-43.937550 21.090025 501.999939
-41.301296 21.090023 501.999939
-38.588413 21.047623 501.000000
-35.940491 21.038872 500.777771
-33.764519 21.048012 501.000000
-31.572018 21.048014 501.000000
-28.980110 21.076021 501.666656
-26.326935 21.062017 501.333344
-23.716164 21.080688 501.777740
-21.066683 21.066296 501.444458
-18.445404 21.080299 501.777771
-16.256893 21.090025 501.999969
-14.060016 21.090023 501.999939
-11.423763 21.090023 501.999939
-8.782063 21.075632 501.666656
-6.254755 21.178205 501.500000
-4.393755 21.968775 501.999969
-0.878751 20.650646 501.999969
0.877001 21.052486 501.111115
3.508975 21.052877 501.111115
6.147757 21.076021 501.666656
8.787510 21.090023 501.999939
11.423763 21.090023 501.999939
14.060016 21.090023 501.999939
16.256893 21.090023 501.999969
18.453770 21.090023 501.999939
21.090025 21.090025 501.999939
23.726274 21.090023 501.999939
26.111460 20.964487 502.000000
28.779097 20.870337 501.999969
-57.997566 22.847527 501.999969
-56.240063 22.847527 501.999969
-53.603813 22.847527 501.999969
-50.967556 22.847527 501.999969
-48.770683 22.847527 501.999969
-46.398052 23.199026 501.999969
-43.937553 23.286901 501.999969
-41.301296 23.286901 501.999969
-38.613991 23.256269 501.333344
-36.193775 23.032640 501.250000
-33.764519 22.802011 501.000000
-31.383400 23.044455 501.500000
-28.998783 23.286901 501.999969
-26.353779 23.279316 501.833344
-23.711105 23.271439 501.666687
-21.034008 23.662678 500.666656
-18.417009 23.679014 501.000000
-16.245808 23.710814 501.666687
-14.060016 23.726274 501.999939
-11.421430 23.721218 501.888885
-8.777980 23.700409 501.444458
-6.137836 23.673567 500.888885
-3.947670 23.686890 501.166687
1.315501 23.679014 501.000000
3.509947 23.689323 501.222229
6.147756 23.710520 501.666656
8.787510 23.726278 501.999939
11.423764 23.726276 501.999939
14.060016 23.726274 501.999939
16.256893 23.726276 501.999969
18.453770 23.726276 501.999939
21.090025 23.726276 501.999939
23.726276 23.726278 501.999939
26.252686 23.836121 501.999969
28.998781 23.836121 501.999969
-17.540012 25.433016 501.000000
-16.028891 26.130152 501.750000
-14.038232 26.321684 501.222229
-11.411705 26.333160 501.444458
-8.775256 26.327520 501.333344
-6.142116 26.321878 501.222229
-3.512281 26.344830 501.666656
-1.318126 26.362530 501.999969
0.987282 26.446114 501.500000
3.511309 26.333160 501.444458
6.147756 26.345026 501.666656
8.787511 26.362528 501.999939
11.423763 26.362530 501.999939
14.054180 26.350666 501.777771
16.256893 26.362532 501.999969
18.453770 26.362528 501.999939
21.090023 26.362532 501.999939
23.726276 26.362530 501.999939
26.362530 26.362532 501.999939
28.747713 26.362532 502.000000
-14.032397 28.940626 501.000000
-11.403729 28.947239 501.111115
-8.773505 28.953854 501.222229
-6.151257 28.998783 501.999939
-3.515004 28.998783 501.999939
-1.318126 28.998783 501.999969
0.877584 28.979527 501.666656
3.509753 28.953854 501.222229
6.139004 28.941017 501.000000
8.655223 28.722954 501.571442
11.415594 28.540443 501.666687
14.048151 28.972914 501.555573
16.251350 28.988865 501.833313
18.453770 28.998783 501.999939
21.090025 28.998783 501.999939
23.726276 28.998783 501.999939
26.362528 28.998783 501.999939
28.559408 28.559408 501.999969
-14.032007 31.462395 501.000000
-11.526293 31.321447 501.000031
-8.776423 31.154234 501.333344
-6.147172 31.174656 501.666687
-3.401440 31.485588 501.375000
-1.318126 31.195660 501.999969
0.877001 31.585632 501.222229
3.508002 30.695019 501.000000
14.499392 31.195660 501.999969
16.256893 31.195660 501.999969
18.453772 31.195662 501.999969
21.090023 31.195662 501.999969
23.726278 31.195662 501.999969
25.923153 30.756285 501.999969
-14.051515 33.624355 501.714294
-11.313919 33.502380 501.999969
-8.787510 33.392540 501.999939
-6.151257 33.392536 501.999939
-3.638789 33.624603 501.714294
-1.318126 33.392536 501.999969
0.292334 33.618355 501.000000
14.499392 33.392536 501.999969
16.256893 33.392536 501.999969
18.453772 33.392536 501.999939
21.090023 33.392536 501.999939
23.726276 33.392536 501.999939
25.923153 34.271286 501.999969
-14.044262 35.988724 501.444458
-11.413066 35.996696 501.555573
-8.787510 36.028793 501.999939
-6.150090 36.020622 501.888885
-3.508197 35.956631 501.000000
-1.316376 35.980362 501.333344
0.218813 36.104065 500.000000
14.499392 36.028793 501.999969
16.256893 36.028793 501.999969
18.453772 36.028793 501.999939
21.090023 36.028793 501.999939
23.726276 36.028790 501.999939
26.111460 36.154327 502.000000
28.998783 36.907543 501.999969
32.513786 36.907543 501.999969
43.937550 36.028790 501.999969
-15.754500 38.948624 500.000000
-14.010419 38.527725 500.222229
-11.397895 38.579079 500.888885
-8.787511 38.665039 501.999939
-6.151257 38.665043 501.999939
-3.511503 38.621861 501.444458
-1.316084 38.600567 501.166687
0.875250 38.511002 500.000000
2.917500 39.094498 500.000000
12.009598 39.250877 501.999969
14.060016 38.665039 501.999939
16.256893 38.665039 501.999969
18.328236 38.539509 502.000000
21.090023 38.665043 501.999939
23.726274 38.665039 501.999939
26.362528 38.665039 501.999939
28.998783 38.665039 501.999939
31.195662 38.665043 501.999969
32.953163 38.665047 501.999969
-15.754500 41.136749 500.000000
-14.007112 41.145893 500.111115
-11.398284 41.210075 500.888885
-8.785371 41.292351 501.888824
-6.146395 41.264538 501.555573
-3.507224 41.209686 500.888885
-1.315501 41.219025 501.000000
0.876028 41.155231 500.222229
3.506641 41.201130 500.777771
6.145033 41.255787 501.444458
8.783815 41.283012 501.777771
11.423763 41.301300 501.999939
14.060016 41.301296 501.999939
16.256893 41.301296 501.999969
18.453770 41.301296 501.999939
21.090023 41.301300 501.999939
23.726278 41.301300 501.999939
26.362528 41.301296 501.999939
28.998783 41.301296 501.999939
31.195660 41.301296 501.999969
32.806705 41.008385 501.999969
-15.754500 43.324875 500.000000
-14.025395 43.830769 500.777771
-11.405869 43.869865 501.222229
-8.787510 43.937550 501.999939
-6.147756 43.908379 501.666656
-3.508975 43.859169 501.111115
-1.316960 43.893494 501.500000
0.877001 43.820850 500.666656
3.513253 43.908375 501.666656
6.150090 43.928020 501.888824
8.787511 43.937550 501.999939
11.423763 43.937550 501.999939
14.060016 43.937550 501.999939
16.256893 43.937553 501.999969
18.453770 43.937553 501.999939
21.090023 43.937550 501.999939
23.726276 43.937550 501.999939
26.362528 43.937550 501.999939
28.998783 43.937550 501.999939
31.195662 43.937546 501.999969
-14.032007 46.481026 501.000000
-11.418706 46.552795 501.777740
-8.787510 46.573799 501.999939
-6.148923 46.553375 501.777771
-3.514031 46.563686 501.888885
-1.318126 46.573803 501.999969
0.878751 46.573799 501.999939
3.515004 46.573799 501.999939
6.151257 46.573799 501.999939
8.787511 46.573807 501.999939
11.423763 46.573799 501.999939
14.060016 46.573799 501.999939
16.256893 46.573803 501.999969
18.453770 46.573799 501.999939
21.090025 46.573799 501.999939
23.726278 46.573799 501.999939
26.362528 46.573799 501.999939
28.998783 46.573799 501.999939
30.756285 45.695053 501.999969
-14.022283 49.079548 500.666656
-11.401007 49.112022 501.000000
-8.781674 49.176796 501.666656
-6.146881 49.063011 501.625000
-3.514004 48.944729 501.857117
-1.318126 48.770683 501.999969
0.878751 48.770683 501.999969
3.515004 48.770683 501.999969
6.274793 48.944729 501.857178
8.659723 48.944729 501.857178
11.423763 48.770683 501.999969
14.060017 48.770683 501.999969
16.256893 48.770683 501.999969
18.453772 48.770683 501.999969
21.090025 48.770683 501.999969
23.726278 48.770683 501.999969
26.362532 48.770683 501.999969
28.998783 48.770683 501.999969
-14.004001 51.202129 500.000000
-11.401007 51.304531 501.000000
-8.775841 51.338375 501.333344
-6.140754 51.130856 501.142883
-3.513253 51.051796 501.750000
-1.318126 50.967556 501.999969
0.878556 50.933327 501.666656
3.514421 50.956081 501.888824
6.041413 51.077400 501.999969
8.897353 51.077400 501.999969
11.421234 50.956276 501.888885
14.060017 50.967556 501.999939
16.256893 50.967556 501.999969
18.453770 50.967556 501.999939
21.090023 50.967556 501.999939
23.726278 50.967556 501.999939
26.362530 50.967556 501.999939
28.998783 50.967556 501.999939
-14.012946 53.426235 500.333344
-11.401007 53.497028 501.000000
-8.770004 53.497028 501.000000
-6.133169 53.449184 500.555573
-3.505668 53.460857 500.666656
-1.316084 53.514538 501.166687
0.876417 53.448994 500.555573
3.506835 53.473106 500.777771
6.144644 53.544102 501.444458
8.784009 53.579887 501.777771
11.423764 53.603809 501.999939
14.060017 53.603809 501.999939
16.256895 53.603813 501.999969
18.453770 53.603813 501.999939
21.085161 53.591755 501.888885
23.726278 53.603813 501.999939
26.362530 53.603813 501.999939
28.998783 53.603809 501.999939
31.049202 53.896729 501.999969
-15.754500 56.453629 500.000000
-14.022088 56.090687 500.666656
-11.401007 56.128033 501.000000
-8.770005 56.128036 501.000000
-6.131808 56.065987 500.444458
-3.501973 56.028252 500.111115
-1.313750 56.052765 500.333344
0.875250 56.015999 500.000000
3.506252 56.090687 500.666656
6.139392 56.127644 501.000000
8.778369 56.177628 501.444458
11.416567 56.202328 501.666656
14.060016 56.240067 501.999939
16.256893 56.240063 501.999969
18.453770 56.240067 501.999939
21.090023 56.240063 501.999939
23.726274 56.240067 501.999939
26.362528 56.240063 501.999939
28.998783 56.240063 501.999939
31.195662 56.240063 501.999969
32.513786 56.679436 501.999969
-15.754500 58.641750 500.000000
-14.028701 58.746197 500.888885
-11.401007 58.759033 501.000000
-8.770005 58.759033 501.000000
-6.131418 58.680847 500.333344
-3.501000 58.641750 500.000000
-1.314917 58.720238 500.666687
0.875250 58.641758 500.000000
3.501778 58.654591 500.111115
6.128306 58.654591 500.111115
8.764560 58.719158 500.666656
11.408593 58.797546 501.333344
14.041344 58.797546 501.333344
16.251642 58.856476 501.833344
18.453770 58.876316 501.999939
21.090025 58.876316 501.999939
23.710327 58.837029 501.666656
26.351248 58.850063 501.777740
28.998783 58.876316 501.999939
31.195662 58.876320 501.999969
32.806702 59.169235 501.999969
-15.754500 61.267509 500.000000
-14.025394 61.362995 500.777771
-11.403536 61.403645 501.111115
-8.770004 61.390034 501.000000
-6.131029 61.308735 500.333344
-3.501000 61.267506 500.000000
-1.313750 61.308929 500.333344
0.875250 61.267506 500.000000
3.507419 61.376423 500.888885
6.126750 61.267509 500.000000
8.762226 61.335579 500.555573
11.398479 61.376228 500.888885
14.029091 61.376228 500.888885
16.241138 61.451305 501.500000
18.453770 61.512566 501.999939
21.090025 61.512573 501.999939
23.715580 61.485733 501.777771
26.356892 61.499153 501.888885
28.998783 61.512573 501.999939
31.195662 61.512569 501.999969
33.282692 61.622414 501.999969
35.150040 61.951942 501.999969
-15.775505 63.979027 500.666687
-14.028701 64.007042 500.888885
-11.401008 64.021034 501.000000
-8.758531 63.935844 500.333344
-6.136476 63.993023 500.777771
-3.504695 63.964825 500.555573
-1.315501 64.021042 501.000000
0.876612 63.964050 500.555573
3.506835 63.992447 500.777771
6.137448 64.006844 500.888885
8.765920 63.992641 500.777771
11.380585 63.907253 500.111115
14.020145 63.964249 500.555573
16.224510 63.582535 501.000000
18.447937 63.688152 501.833344
21.090023 63.709450 501.999969
23.726278 63.709442 501.999969
26.362532 63.709442 501.999969
28.998783 63.709450 501.999969
31.195660 63.709442 501.999969
32.953163 63.709442 501.999969
35.809105 63.489754 501.999969
-15.786009 66.213539 501.000000
-14.012946 66.562950 500.333344
-11.401007 66.213547 501.000000
-8.770006 66.213547 501.000000
-6.133169 66.147308 500.500000
-3.381966 66.382217 500.857178
-1.314626 66.607109 500.666687
0.875250 66.519005 500.000000
3.504501 66.577736 500.444458
6.012218 66.382217 500.857178
8.767505 66.382217 500.857178
11.263218 66.325439 500.428589
14.041927 66.257591 501.333344
16.256893 65.906326 501.999969
18.453770 65.906326 501.999939
21.090025 65.906326 501.999939
23.726278 65.906326 501.999939
26.362530 65.906319 501.999939
28.998783 65.906319 501.999939
31.195662 65.906319 501.999969
32.953163 65.906334 501.999969
-15.786009 68.406036 501.000000
-14.008960 68.730179 500.166687
-11.388170 68.329796 500.444458
-8.763975 68.360336 500.666656
-6.139004 68.406044 501.000000
-3.617627 68.515671 501.000000
-1.313313 68.741699 500.250000
0.875250 68.707130 500.000000
3.501000 68.707123 500.000000
6.239439 68.412605 500.250000
8.761690 68.446960 500.500000
11.505381 68.481308 500.750000
14.041927 68.451553 501.333344
16.256893 68.542572 501.999969
18.453770 68.542572 501.999939
21.090025 68.542580 501.999939
23.726274 68.542580 501.999939
26.362528 68.542572 501.999939
28.998783 68.542580 501.999939
31.195662 68.542572 501.999969
33.141464 68.668114 502.000000
36.138638 68.652420 501.999969
38.079212 69.128410 501.999969
-15.765003 70.941940 500.333344
-14.010223 70.926575 500.222229
-11.393033 70.989586 500.666656
-8.766309 71.005150 500.777771
-6.130835 70.941933 500.333344
-3.502751 70.926376 500.222229
-1.312875 70.895264 500.000000
0.875250 70.895256 500.000000
3.501000 70.895256 500.000000
6.131418 70.942520 500.333344
8.760474 70.958084 500.444458
11.394005 70.989784 500.666656
14.038620 71.068359 501.222229
16.256893 71.178833 501.999969
18.453770 71.178833 501.999939
21.090023 71.178825 501.999939
23.726278 71.178833 501.999939
26.362528 71.178833 501.999939
28.998783 71.178833 501.999939
31.195662 71.178833 501.999969
33.392536 71.178833 501.999939
36.028793 71.178825 501.999939
38.137794 71.178833 501.999969
-15.754500 73.083374 500.000000
-14.003999 73.521004 500.000000
-11.378250 73.520996 500.000000
-8.754641 73.537148 500.111115
-6.126750 73.521004 500.000000
-3.501000 73.520996 500.000000
-1.312875 73.520996 500.000000
0.875250 73.520996 500.000000
3.501000 73.520996 500.000000
6.126750 73.521004 500.000000
8.754251 73.537148 500.111115
11.398672 73.651894 500.888885
14.032009 73.668045 501.000000
16.256893 73.815094 501.999969
18.453770 73.815086 501.999939
21.090023 73.815086 501.999939
23.726276 73.815094 501.999939
26.362532 73.815086 501.999939
28.998783 73.815094 501.999939
31.195662 73.815094 501.999969
33.392536 73.815094 501.999939
36.028793 72.936333 501.999969
37.786293 72.936333 501.999969
-14.007113 76.163483 500.111115
-11.378250 76.146751 500.000000
-8.752501 76.146744 500.000000
-6.126750 76.146759 500.000000
-3.501000 76.146744 500.000000
-1.312875 76.146751 500.000000
0.875250 76.146744 500.000000
3.501000 76.146759 500.000000
6.126750 76.146744 500.000000
8.752501 76.146759 500.000000
11.398673 76.281937 500.888885
14.041732 76.349411 501.333344
16.256893 76.451340 501.999969
18.453770 76.451332 501.999939
21.075632 76.400177 501.666656
23.710329 76.400375 501.666656
26.362528 76.451332 501.999939
28.998783 76.451332 501.999939
31.195662 76.451340 501.999969
33.392536 76.451332 501.999939
36.028797 76.451340 501.999939
-43.058796 79.966339 501.999969
-41.247032 79.860146 501.333344
-39.465023 79.807045 501.000000
-13.761682 78.692978 500.285736
-11.378251 78.772499 500.000000
-8.752501 78.772491 500.000000
-6.126750 78.772499 500.000000
-3.501000 78.772499 500.000000
-1.312875 78.772499 500.000000
0.875250 78.772499 500.000000
3.501000 78.772507 500.000000
6.126750 78.772499 500.000000
8.752501 78.772499 500.000000
11.394004 78.877541 500.666656
14.038621 78.965248 501.222229
16.251642 79.061623 501.833344
18.453770 79.087593 501.999939
21.090025 79.087585 501.999939
23.726276 79.087585 501.999939
26.362528 79.087593 501.999939
28.998783 79.087593 501.999939
31.195662 79.087585 501.999969
33.392536 79.087593 501.999939
35.777721 78.962059 502.000000
38.137794 79.087585 501.999969
-53.603817 81.284470 501.999969
-51.329910 81.163246 501.250000
-49.122726 81.578941 501.111115
-46.573803 81.284470 501.999969
-43.799763 81.449272 501.857117
-41.210468 81.542572 500.888885
-38.588020 80.684044 501.000000
-13.579796 81.479073 500.500000
-11.383696 81.434242 500.222229
-8.752501 81.398254 500.000000
-6.129862 81.434624 500.222229
-3.501584 81.416542 500.111115
-1.314334 81.480240 500.500000
0.875250 81.398254 500.000000
3.501000 81.398254 500.000000
6.126750 81.398254 500.000000
8.754640 81.416351 500.111115
11.294445 81.471764 501.125000
13.933105 81.512253 501.375000
16.256893 81.284470 501.999969
18.453772 81.284470 501.999969
21.090025 81.284470 501.999969
23.726278 81.284470 501.999969
26.362530 81.284470 501.999969
28.998783 81.284470 501.999969
31.195660 81.284470 501.999969
33.392536 81.284470 501.999969
36.028793 81.284470 501.999969
38.489296 81.372345 501.999969
-53.603817 83.481354 501.999939
-51.077400 83.591187 501.999969
-48.770683 83.920715 501.999969
-46.573799 83.481346 501.999939
-44.047394 83.591187 501.999969
-41.443790 83.942078 501.600006
-38.639954 84.304085 501.666687
-36.075008 84.582756 500.200012
-33.697124 84.461624 500.000000
-31.333948 84.549156 500.000000
-28.883253 84.461632 500.000000
-26.266546 84.489639 500.166687
-23.631752 84.899254 500.000000
-13.128750 83.586380 500.000000
-11.378250 83.914589 500.000000
-8.752501 84.024002 500.000000
-6.020845 83.956390 500.250000
-3.501000 84.024002 500.000000
-1.315501 83.753555 501.000000
0.875250 84.024002 500.000000
3.501000 84.024002 500.000000
6.019094 83.935608 500.125000
8.760962 83.670120 500.500000
11.536547 83.637146 501.428589
14.169797 83.636650 501.428589
16.256893 83.481346 501.999969
18.453770 83.481354 501.999939
21.090023 83.481354 501.999939
23.726278 83.481354 501.999939
26.362530 83.481346 501.999939
28.998783 83.481346 501.999939
31.107786 83.305603 501.999969
32.806702 82.895523 501.999969
36.614624 82.895523 501.999969
38.137794 83.305603 501.999969
-43.498173 85.238846 501.999969
-40.994965 85.796379 501.833313
-38.596775 85.965118 501.111115
-35.885254 86.212128 500.000000
-33.697124 86.212128 500.000000
-31.509003 86.212128 500.000000
-28.883253 86.212128 500.000000
-26.257500 86.212128 500.000000
-23.631752 86.212128 500.000000
-21.126129 85.926361 500.250000
-11.391504 86.122597 500.571442
-8.755711 86.240723 500.166687
-6.259288 86.122856 500.571442
-3.501000 86.212128 500.000000
-1.315501 85.946060 501.000000
0.875250 86.212128 500.000000
3.502750 86.269608 500.333344
6.255787 86.073341 500.285736
8.770004 85.946045 501.000000
11.416568 86.060608 501.666656
14.060017 86.117599 501.999939
16.256895 86.117599 501.999969
18.453770 86.117599 501.999939
21.090023 86.117592 501.999939
23.720831 86.098343 501.888824
26.362528 86.117592 501.999939
28.705864 85.824677 501.999969
37.786293 85.238846 501.999969
-40.757946 88.893883 501.800018
-38.588024 88.577042 501.000000
-35.917732 88.479027 500.444458
-33.697124 88.400261 500.000000
-31.508999 88.400253 500.000000
-28.883249 88.400261 500.000000
-26.257502 88.400261 500.000000
-23.631752 88.400261 500.000000
-21.006002 88.400253 500.000000
-18.635384 89.235237 501.000000
-11.398673 88.557404 500.888885
-8.768060 88.557594 500.888885
-6.136669 88.537964 500.777771
-3.501000 88.400261 500.000000
-1.313750 88.488647 500.500000
0.875250 88.400261 500.000000
3.508003 88.577049 501.000000
6.134920 88.518700 500.666656
8.775452 88.636368 501.333344
11.401007 88.577042 501.000000
14.032008 88.577057 501.000000
16.240555 88.664871 501.500000
18.420900 88.596504 501.111115
21.067074 88.655434 501.444458
23.694963 88.635597 501.333344
26.111460 88.628319 502.000000
-40.821663 91.299072 501.500000
-38.588024 91.208038 501.000000
-35.957020 91.208046 501.000000
-33.697128 91.026001 500.000000
-31.508999 91.026001 500.000000
-28.883249 91.026001 500.000000
-26.257502 91.026001 500.000000
-23.631752 91.026001 500.000000
-21.014948 91.066650 500.222229
-18.428679 91.268738 501.333344
-11.393421 91.146973 500.666656
-8.767865 91.187820 500.888885
-6.141337 91.248695 501.222229
-3.510725 91.268921 501.333344
-1.315501 91.208038 501.000000
0.875250 91.026001 500.000000
3.501973 91.046036 500.111115
6.130835 91.086098 500.333344
8.775451 91.268341 501.333344
11.401007 91.208046 501.000000
14.032008 91.208046 501.000000
16.224510 91.208054 501.000000
18.412926 91.188011 500.888885
21.048014 91.208046 501.000000
23.679012 91.208046 501.000000
25.759773 90.743584 501.666687
-43.351715 94.612183 501.999969
-41.140472 94.018700 501.375000
-38.579659 93.818047 500.888885
-35.917538 93.734604 500.444458
-33.697124 93.651756 500.000000
-31.509003 93.651749 500.000000
-28.883249 93.651749 500.000000
-26.257502 93.651749 500.000000
-23.631752 93.651749 500.000000
-21.024088 93.734810 500.444458
-18.408258 93.797234 500.777771
-16.663010 94.716057 501.000000
-13.155006 94.277557 501.000000
-11.401007 93.839050 501.000000
-8.771756 93.860054 501.111115
-6.144255 93.922684 501.444458
-3.069502 93.839066 501.000000
-1.315501 93.839050 501.000000
0.875834 93.693375 500.222229
3.503529 93.714188 500.333344
6.128306 93.672562 500.111115
8.770004 93.839058 501.000000
11.401007 93.839050 501.000000
14.032009 93.839050 501.000000
16.224510 93.839050 501.000000
18.404949 93.776817 500.666656
21.048014 93.839058 501.000000
23.695353 93.901489 501.333344
36.614624 94.612183 501.999969
38.225670 94.465729 501.999969
-43.761795 96.311119 501.999969
-41.255978 96.555252 501.444458
-38.562931 96.405869 500.666656
-35.885254 96.277512 500.000000
-33.697124 96.277496 500.000000
-31.508999 96.277504 500.000000
-28.883249 96.277512 500.000000
-26.257500 96.277504 500.000000
-23.631754 96.277504 500.000000
-21.033619 96.406059 500.666656
-18.417009 96.470062 501.000000
-16.224510 96.470055 501.000000
-14.029090 96.448463 500.888885
-11.401007 96.470055 501.000000
-8.883569 96.408356 501.250000
-6.019470 96.301521 501.428589
-3.508003 96.470062 501.000000
-1.315501 96.470062 501.000000
0.875834 96.319908 500.222229
3.504501 96.362694 500.444458
6.126750 96.277512 500.000000
8.752501 96.277504 500.000000
11.378250 96.277504 500.000000
14.026174 96.427086 500.777771
16.224510 96.470055 501.000000
18.417009 96.470055 501.000000
21.048014 96.470055 501.000000
23.574484 96.301750 501.428589
26.142841 96.442917 501.999969
28.998785 96.662621 501.999969
31.195660 96.662613 501.999969
33.392536 96.662613 501.999969
36.028793 96.223236 501.999969
37.786293 96.223236 501.999969
40.715462 96.369690 501.999969
-46.046551 98.595863 501.999969
-43.832520 98.556129 501.800018
-41.201130 99.056908 500.777771
-38.519756 98.925041 500.111115
-35.909565 98.969574 500.333344
-33.697124 98.903259 500.000000
-31.509003 98.903259 500.000000
-28.883249 98.903259 500.000000
-26.268976 98.947609 500.222229
-23.642643 98.947418 500.222229
-21.024282 98.990784 500.444458
-18.396784 98.990578 500.444458
-16.192127 98.903259 500.000000
-14.004001 98.903259 500.000000
-11.390698 99.012566 500.555573
-8.685455 98.964684 501.200012
-6.220164 98.799339 501.090912
-3.503723 98.968803 500.333344
-1.314917 99.067802 500.833344
0.875639 98.947014 500.222229
3.505668 99.035324 500.666656
6.126750 98.903259 500.000000
8.752501 98.903259 500.000000
11.378250 98.903252 500.000000
14.023255 99.035133 500.666656
16.136810 98.925659 501.000000
18.302229 98.906761 501.285736
21.090025 98.859489 501.999969
23.824524 98.480942 501.749969
26.362528 98.420113 501.999939
28.998783 98.420120 501.999939
31.195662 98.420120 501.999969
33.392536 98.420120 501.999939
36.028793 98.420120 501.999939
38.539509 98.294586 502.000000
40.422543 98.420113 501.999969
-48.331306 101.935112 501.999969
-46.563686 101.033981 501.888824
-43.870255 101.191742 501.222229
-41.164173 101.596687 500.333344
-38.649292 101.495743 500.375000
-35.957024 101.293564 501.000000
-33.731258 101.192467 500.500000
-31.383965 101.278938 500.000031
-28.883249 101.528999 500.000000
-26.268974 101.573730 500.222229
-23.642643 101.573929 500.222229
-21.006001 101.528999 500.000000
-18.380249 101.528999 500.000000
-16.192127 101.529007 500.000000
-14.004000 101.528999 500.000000
-11.492908 101.470139 500.250000
-8.640219 101.423225 500.714294
-6.023689 101.520462 500.500000
-3.501000 101.528999 500.000000
-1.312875 101.529007 500.000000
0.875250 101.528999 500.000000
3.379215 101.365456 500.428589
6.126750 101.528999 500.000000
8.752501 101.528999 500.000000
11.253215 101.278938 500.000031
14.023256 101.226166 500.666687
16.325514 101.110985 501.399994
18.550266 101.090500 501.625000
21.090025 101.056358 501.999939
23.726278 101.056358 501.999939
26.362532 101.056366 501.999939
28.998783 101.056358 501.999939
31.195662 101.056358 501.999969
33.502380 101.166199 501.999969
35.918949 100.946510 501.999969
38.665047 100.930824 502.000000
41.081612 101.276047 501.999969
-50.866032 104.363052 501.000000
-48.916973 103.728874 501.571442
-46.502033 103.531769 501.222229
-43.948929 103.569862 500.875000
-41.177891 103.821274 500.500000
-38.462738 103.736626 501.000031
-35.981136 103.555298 501.333344
-33.775898 103.520477 501.166687
-31.681644 103.595680 501.000000
-28.892586 103.751846 500.166687
-26.283758 103.821281 500.500000
-23.631752 103.717125 500.000000
-21.006001 103.717125 500.000000
-18.380253 103.717125 500.000000
-16.192125 103.717125 500.000000
-14.004001 103.717125 500.000000
-11.259217 103.588585 500.285736
-8.868909 103.466133 500.375000
-6.253787 103.558823 500.142883
-3.501000 103.717125 500.000000
-1.312875 103.717125 500.000000
0.875250 103.717125 500.000000
3.616314 103.543823 500.750000
6.126750 103.717125 500.000000
8.761253 103.821281 500.500000
11.516541 103.647774 501.250000
14.054180 103.646912 501.777740
16.251642 103.658478 501.833344
18.453770 103.692619 501.999939
21.090025 103.692612 501.999939
23.689127 103.531960 501.222229
26.351252 103.646523 501.777771
28.998783 103.692612 501.999939
31.195662 103.692619 501.999969
33.643608 103.818153 502.000000
35.589417 103.692612 501.999969
39.543793 103.692612 501.999969
41.050228 103.818153 502.000000
-52.620026 106.994064 501.000000
-50.922237 106.234543 501.555573
-48.673531 106.117065 501.000000
-46.481030 106.117065 501.000000
-43.869671 106.164528 501.222229
-41.237309 106.164528 501.222229
-38.588024 106.117065 501.000000
-35.996895 106.235123 501.555573
-33.605099 106.333885 501.428589
-31.470272 106.034134 501.125000
-28.889475 105.928604 500.111115
-26.274424 105.975861 500.333344
-23.642252 105.952324 500.222229
-21.006002 105.905258 500.000000
-18.380251 105.905258 500.000000
-16.192127 105.905258 500.000000
-14.004001 105.905258 500.000000
-11.393033 106.046661 500.666656
-8.762808 106.022926 500.555573
-6.126750 105.905258 500.000000
-3.501000 105.905258 500.000000
-1.312875 105.905258 500.000000
0.875250 105.905258 500.000000
3.501778 105.928596 500.111115
6.129668 105.952721 500.222229
8.774089 106.164528 501.222229
11.419095 106.282005 501.777771
14.060016 106.328873 501.999939
16.251642 106.293869 501.833344
18.453770 106.328880 501.999939
20.738523 105.977379 501.999969
26.994461 106.002838 501.500000
28.986336 106.281609 501.777771
31.195660 106.328880 501.999969
33.392536 106.328873 501.999939
35.918949 106.438713 501.999969
38.665043 106.680374 501.999969
41.411140 106.438721 501.999969
43.058796 106.768250 501.999969
-52.892231 109.076714 501.500000
-50.944996 108.917076 501.777771
-48.754635 108.929245 501.833313
-46.542488 108.893166 501.666626
-43.918484 108.916695 501.777771
-41.283405 108.916679 501.777771
-38.588020 108.748062 501.000000
-35.972969 108.796104 501.222229
-33.585842 108.653542 501.142883
-31.478149 108.911728 501.250000
-28.915735 108.651588 500.555573
-26.286285 108.651588 500.555573
-23.679014 108.748070 501.000000
-21.029146 108.651787 500.555573
-18.393087 108.603355 500.333344
-16.202627 108.603073 500.333344
-14.019948 108.651398 500.555573
-11.378250 108.531006 500.000000
-8.754640 108.554932 500.111115
-6.126750 108.531006 500.000000
-3.501000 108.531006 500.000000
-1.312875 108.531006 500.000000
0.875250 108.531006 500.000000
3.505279 108.651787 500.555573
6.139004 108.748062 501.000000
8.782259 108.892769 501.666656
11.423764 108.965118 501.999939
14.060016 108.965118 501.999939
16.256893 108.965111 501.999969
18.453773 108.965118 501.999939
20.211271 108.965118 501.999969
29.241854 108.808823 501.857178
31.195662 108.965118 501.999969
33.392536 108.965126 501.999939
36.028797 108.965118 501.999939
38.555199 109.074966 501.999969
41.301300 108.965111 501.999939
43.058796 109.843872 501.999969
-55.361313 112.480125 501.999969
-53.493969 111.711227 501.999969
-50.944996 111.551773 501.777771
-48.770683 111.601372 501.999969
-46.553570 111.552162 501.777771
-43.850025 111.379066 501.000000
-41.228168 111.403580 501.111115
-38.588020 111.379066 501.000000
-35.964802 111.403763 501.111115
-33.764519 111.379074 501.000000
-31.572018 111.379066 501.000000
-28.941017 111.379066 501.000000
-26.304178 111.354568 500.888885
-23.679014 111.379074 501.000000
-21.048014 111.379066 501.000000
-18.393087 111.230858 500.333344
-16.192127 111.156754 500.000000
-14.007113 111.181641 500.111115
-11.380584 111.181252 500.111115
-8.762031 111.280449 500.555573
-6.129862 111.206337 500.222229
-3.503334 111.231430 500.333344
-1.314042 111.268494 500.500000
0.875639 111.181641 500.111115
3.505814 111.186508 500.625000
6.139004 111.379066 501.000000
8.780313 111.502373 501.555573
11.423763 111.601364 501.999939
14.060016 111.601379 501.999939
16.256893 111.601379 501.999969
18.453770 111.601372 501.999939
20.562773 111.777122 501.999969
28.998783 111.601372 501.999939
31.195662 111.601379 501.999969
33.392536 111.601372 501.999939
36.028797 111.601372 501.999939
38.665043 111.601364 501.999939
41.301296 111.601364 501.999939
43.058800 111.601379 501.999969
-55.866158 114.016014 501.800018
-53.603813 113.798248 501.999969
-51.338959 114.085632 501.333344
-49.148567 113.985344 501.375000
-46.460796 113.959312 500.777771
-43.791679 113.857773 500.333344
-41.172928 113.883453 500.444458
-38.537064 113.858170 500.333344
-35.908981 113.857964 500.333344
-33.764519 114.010071 501.000000
-31.572018 114.010063 501.000000
-28.941017 114.010063 501.000000
-26.315653 114.035156 501.111115
-23.673958 113.984779 500.888885
-21.006001 113.782501 500.000000
-18.396976 113.883453 500.444458
-16.208464 113.895706 500.500000
-14.025784 113.959312 500.777771
-11.393616 113.934410 500.666656
-8.765726 113.959694 500.777771
-6.134919 113.934799 500.666656
-3.618283 113.928894 501.125000
-1.227801 113.834671 501.000000
0.875250 113.782501 500.000000
3.502751 113.832680 500.222229
6.132390 113.883057 500.444458
8.766309 113.959106 500.777771
11.398479 113.984581 500.888885
13.926102 113.928665 501.125000
16.256893 113.798248 501.999969
18.453772 113.798248 501.999969
21.075727 113.722984 501.666687
23.709942 114.161766 501.666687
26.582216 114.017944 501.999969
28.998785 113.798248 501.999969
31.195660 113.798248 501.999969
33.392540 113.798248 501.999969
36.028793 113.798264 501.999969
38.665047 113.798248 501.999969
41.402828 113.921295 501.714294
42.944435 113.933044 500.666687
-58.436939 116.873878 501.999969
-56.212051 116.046982 501.750000
-53.430859 115.984818 501.200012
-51.270397 116.562889 500.666687
-49.140034 116.080406 501.285736
-46.465858 116.164055 500.833344
-43.806267 116.087036 500.500000
-41.177891 116.087029 500.500000
-38.421288 116.356834 500.250000
-35.885254 116.408257 500.000000
-33.697128 116.408257 500.000000
-31.649477 116.414818 500.500000
-28.941021 116.202568 501.000000
-26.310013 116.202560 501.000000
-23.552101 116.443695 500.625000
-21.006002 116.408257 500.000000
-18.396782 116.511139 500.444458
-16.203213 116.485565 500.333344
-14.027048 116.164055 500.833344
-11.401007 116.202568 501.000000
-8.889790 116.323982 500.714294
-6.264040 116.390259 501.000031
-3.388468 116.212952 501.857178
-1.405301 116.078102 501.600006
0.875250 116.408257 500.000000
3.501000 116.408257 500.000000
6.129862 116.459801 500.222229
8.764171 116.562881 500.666656
11.272721 116.356995 500.857178
14.170048 116.113670 501.428589
16.256893 115.995132 501.999969
18.453770 115.995132 501.999939
21.090023 115.995132 501.999939
23.726276 115.995117 501.999939
26.362528 115.995132 501.999939
28.998783 115.995148 501.999939
31.195662 115.995132 501.999969
33.392536 115.995132 501.999939
36.028793 115.995132 501.999939
38.665043 115.995132 501.999939
41.128872 115.931023 501.250000
42.887253 116.845871 500.000000
-58.625248 118.756927 502.000000
-56.153313 118.447594 501.222229
-53.462025 118.608047 500.666656
-51.202126 119.034012 500.000000
-49.038509 118.655022 500.250000
-46.480640 118.394684 501.000000
-43.908184 118.552406 501.666656
-41.228359 118.421524 501.111115
-38.550171 118.714752 500.500000
-35.885254 119.034004 500.000000
-33.697124 119.033997 500.000000
-31.433729 118.906044 500.200012
-28.916805 118.733940 500.583344
-26.201962 118.583977 500.454559
-23.770792 118.476097 500.285736
-20.896595 118.924591 500.000000
-18.380253 119.034004 500.000000
-16.192127 119.034012 500.000000
-14.022528 118.753784 500.666687
-11.396871 118.670380 500.818207
-8.675957 118.758392 500.181824
-6.024565 118.415634 500.625000
-3.506835 118.368233 500.888885
-1.315501 118.395073 501.000000
0.875250 119.034004 500.000000
3.501000 119.033989 500.000000
6.001715 118.783936 500.000031
8.752501 119.034004 500.000000
11.388947 118.555336 500.444458
14.041927 118.473839 501.333344
16.256893 118.631378 501.999969
18.453770 118.631378 501.999939
21.090023 118.631378 501.999939
23.726276 118.631378 501.999939
26.362528 118.631386 501.999939
28.998783 118.631386 501.999939
31.195662 118.631371 501.999969
33.392536 118.631378 501.999939
36.028793 118.631378 501.999939
38.665043 118.631378 501.999939
41.245670 118.474037 501.333344
42.887253 118.596375 500.000000
-58.876316 121.267632 501.999939
-56.227802 121.240997 501.888885
-53.620880 121.165886 501.125000
-51.202126 121.222137 500.000000
-49.014004 121.222130 500.000000
-46.491138 121.053116 501.111115
-43.907986 121.187500 501.666656
-41.292351 121.240997 501.888885
-38.717339 121.196297 501.250000
-35.885254 121.222130 500.000000
-33.697124 121.222137 500.000000
-31.529425 121.302948 500.333344
-28.931389 121.424309 500.833344
-26.435301 121.276642 501.000031
-23.679014 121.026054 501.000000
-21.155796 121.172867 500.571442
-18.380253 121.222130 500.000000
-16.192123 121.222137 500.000000
-14.008376 121.262695 500.166687
-11.394006 121.207375 500.714294
-8.752501 121.222130 500.000000
-6.139004 121.026070 501.000000
-3.508003 121.026070 501.000000
-1.315501 121.026077 501.000000
0.875250 121.222130 500.000000
3.505085 121.343498 500.500000
6.248629 121.135689 501.000000
8.761253 121.343781 500.500000
11.502535 121.044670 500.625000
14.045039 121.133423 501.444458
16.256893 121.267639 501.999969
18.453770 121.267632 501.999939
21.090023 121.267632 501.999939
23.726278 121.267647 501.999939
26.362530 121.267647 501.999939
28.998783 121.267632 501.999939
31.195662 121.267639 501.999969
33.392536 121.267662 501.999939
36.028793 121.267632 501.999939
38.665043 121.267632 501.999939
41.301296 121.157791 501.999969
43.030209 121.187706 501.666687
-60.633820 123.903893 501.999969
-58.876316 123.903893 501.999939
-56.240063 123.903893 501.999939
-53.556938 123.794785 501.555573
-51.253475 123.534241 500.500000
-49.014004 123.410263 500.000000
-46.470329 123.629066 500.888885
-43.907990 123.821236 501.666656
-41.301296 123.903893 501.999939
-38.631397 123.793999 501.555573
-35.909760 123.492531 500.333344
-33.708214 123.451103 500.166687
-31.572018 123.657082 501.000000
-28.941019 123.657066 501.000000
-26.310013 123.657082 501.000000
-23.679014 123.657066 501.000000
-21.043344 123.629845 500.888885
-18.388418 123.465492 500.222229
-16.202919 123.493118 500.333344
-14.009834 123.465309 500.222229
-11.398284 123.629845 500.888885
-8.770004 123.657066 501.000000
-6.140171 123.684303 501.111115
-3.508002 123.657066 501.000000
3.508003 123.657082 501.000000
6.139004 123.657066 501.000000
8.759696 123.520157 500.444458
11.391088 123.547768 500.555573
14.035314 123.684303 501.111115
16.246391 123.821335 501.666687
18.449490 123.876274 501.888885
21.085161 123.876274 501.888885
23.710520 123.821030 501.666656
26.351250 123.848854 501.777771
28.998783 123.903893 501.999939
31.195662 123.903893 501.999969
33.392536 123.903893 501.999939
36.028793 123.903893 501.999939
38.665039 123.903893 501.999939
41.008385 123.757431 501.999969
-60.633820 126.540146 501.999969
-58.876316 126.540146 501.999939
-56.240059 126.540138 501.999939
-53.592136 126.511940 501.888885
-51.287609 126.245781 500.833344
-49.068268 126.175453 500.555573
-46.398754 126.064018 500.111115
-43.849640 126.287682 501.000000
-41.237503 126.343712 501.222229
-38.588024 126.288071 501.000000
-35.909172 126.120621 500.333344
-33.708504 126.078323 500.166687
-31.572018 126.288071 501.000000
-28.941019 126.288071 501.000000
-26.310013 126.288071 501.000000
-23.679016 126.288086 501.000000
-21.052681 126.315895 501.111115
-18.408840 126.231880 500.777771
-16.224510 126.288078 501.000000
-14.025784 126.232262 500.777771
-11.401007 126.288071 501.000000
-8.770005 126.288071 501.000000
-6.140171 126.316284 501.111115
-3.508002 126.288071 501.000000
-1.316376 126.853043 501.500000
0.877001 126.814270 501.000000
3.508003 126.288086 501.000000
6.135892 126.231865 500.777771
8.419205 125.937279 501.000000
11.664832 126.306335 501.571442
14.032009 126.288071 501.000000
16.246391 126.456131 501.666687
18.453770 126.540138 501.999939
21.056959 126.344276 501.222229
23.700216 126.399521 501.444458
26.345606 126.456123 501.666656
29.438158 126.759827 501.999969
31.195662 126.540146 501.999969
33.392536 126.540138 501.999939
36.028790 126.540138 501.999939
38.665043 126.540146 501.999939
40.774048 126.364395 501.999969
43.058796 125.661385 501.999969
-61.073196 128.737015 501.999969
-58.876312 128.737000 501.999969
-56.240063 128.737000 501.999969
-53.433266 128.815048 501.571442
-51.236553 128.747818 500.333344
-49.014004 128.661743 500.000000
-46.398365 128.690140 500.111115
-43.810932 128.804123 500.555573
-41.209686 128.890274 500.888885
-38.588020 128.919052 501.000000
-35.949238 128.890289 500.888885
-33.708504 128.704346 500.166687
-31.537205 128.775528 500.444458
-28.927792 128.861679 500.777771
-26.280451 128.776123 500.444458
-23.657816 128.804520 500.555573
-21.028755 128.804703 500.555573
-18.396200 128.775925 500.444458
-16.202919 128.746948 500.333344
-14.016643 128.775528 500.444458
-11.395950 128.861496 500.777771
-8.770004 128.919067 501.000000
-6.139004 128.919067 501.000000
-3.508003 128.919067 501.000000
-1.316084 129.004547 501.333344
0.877001 128.919052 501.000000
3.508002 128.919052 501.000000
6.135502 128.745331 500.750000
8.551193 128.699814 501.000000
11.590060 128.722656 501.600006
14.041344 128.566345 501.333344
16.232386 128.544891 501.250000
18.447937 128.694138 501.833344
21.075729 128.651825 501.666687
23.686600 128.523453 501.166687
26.200390 128.809433 501.000000
28.998785 128.737000 501.999969
31.195660 128.737015 501.999969
33.392536 128.737030 501.999969
36.028793 128.737030 501.999969
38.665047 128.737030 501.999969
40.422543 128.737015 501.999969
-61.073196 130.933914 501.999969
-58.876316 130.933914 501.999939
-56.240059 130.933914 501.999939
-53.551125 131.241638 501.500000
-51.202126 131.287506 500.000000
-49.014004 131.287491 500.000000
-46.429096 131.404602 500.444458
-43.820850 131.463104 500.666656
-41.200356 131.491913 500.777771
-38.588024 131.550079 501.000000
-35.941463 131.491516 500.777771
-33.697124 131.287506 500.000000
-31.508999 131.287491 500.000000
-28.921177 131.462540 500.666656
-26.303984 131.520706 500.888885
-23.679014 131.550064 501.000000
-21.038481 131.491318 500.777771
-18.400478 131.433182 500.555573
-16.192127 131.287506 500.000000
-14.004000 131.287491 500.000000
-11.378250 131.287491 500.000000
-8.757947 131.374634 500.333344
-6.139004 131.550079 501.000000
-3.508003 131.550064 501.000000
-1.316814 131.242859 501.500000
0.877001 131.550079 501.000000
3.508002 131.550079 501.000000
6.140229 131.400589 501.100006
8.787511 130.933914 501.999939
11.423764 130.933899 501.999939
14.056709 130.904709 501.888885
16.246391 130.846680 501.666687
18.453770 130.933914 501.999939
21.090023 130.933914 501.999939
23.726278 130.933899 501.999939
26.408569 131.426834 501.200012
28.998783 130.933914 501.999939
31.195662 130.933899 501.999969
33.392536 130.933899 501.999939
36.028797 130.933899 501.999939
38.665039 130.933899 501.999939
-61.073196 133.570145 501.999969
-58.876316 133.570145 501.999939
-56.240059 133.570145 501.999939
-53.684086 133.706940 501.571442
-51.279148 133.676056 500.750000
-49.095398 133.698227 500.833344
-46.496197 133.787216 501.166687
-43.879494 133.831848 501.333344
-41.219025 133.742584 501.000000
-38.588024 133.742584 501.000000
-35.794006 133.870361 500.250000
-33.697128 133.913254 500.000000
-31.509003 133.913254 500.000000
-28.889475 133.942825 500.111115
-26.268976 133.972366 500.222229
-23.642061 133.972382 500.222229
-21.010475 133.942825 500.111115
-18.384142 133.942810 500.111115
-16.192127 133.913254 500.000000
-14.004002 133.913239 500.000000
-11.378250 133.913254 500.000000
-8.752501 133.913254 500.000000
-6.260289 133.853745 500.714294
-3.508002 133.742554 501.000000
-1.318126 133.570160 501.999969
1.000786 133.777466 500.428589
3.505668 134.091202 500.666656
6.017719 134.006271 501.285736
8.787510 133.570145 501.999939
11.421429 133.540604 501.888824
14.060016 133.570145 501.999939
16.256893 133.570145 501.999969
18.453770 133.570145 501.999939
21.090025 133.570145 501.999939
23.720831 133.540375 501.888885
26.345314 133.920837 501.666687
28.998783 133.570145 501.999939
31.195662 133.570160 501.999969
33.392536 133.570145 501.999939
36.028790 133.570145 501.999939
38.665043 133.570145 501.999939
40.715466 134.155991 501.999969
-60.985321 136.382141 501.999969
-58.876316 136.206406 501.999939
-56.240063 136.206390 501.999939
-53.603809 136.206390 501.999939
-51.077400 136.316238 501.999969
-48.916973 135.965347 501.571442
-46.532181 136.086197 501.555573
-43.898457 136.086197 501.555573
-41.264343 136.086212 501.555573
-38.614277 136.025513 501.333344
-35.994835 136.445343 500.300018
-33.708504 136.584518 500.166687
-31.508999 136.539017 500.000000
-28.883253 136.539017 500.000000
-26.257502 136.539017 500.000000
-23.631754 136.539017 500.000000
-21.006002 136.539017 500.000000
-18.380253 136.539017 500.000000
-16.192127 136.539001 500.000000
-14.004000 136.539017 500.000000
-11.490283 136.463730 500.125000
-8.647470 136.497864 500.250000
-6.135892 136.166718 500.777771
-3.508003 135.935074 501.000000
-1.317543 136.160889 501.833313
0.766500 135.976654 500.750000
3.501750 136.327942 500.142883
6.134141 136.106033 500.555573
8.688081 136.190796 501.300018
11.418900 136.145721 501.777740
14.060016 136.206390 501.999939
16.256893 136.206406 501.999969
18.453770 136.206406 501.999939
21.090023 136.206390 501.999939
23.704689 136.085800 501.555573
26.345219 136.115555 501.666656
28.998783 136.206406 501.999939
31.195662 136.206390 501.999969
33.392536 136.206375 501.999939
36.028790 136.206390 501.999939
38.555199 136.206390 501.999969
41.191456 136.096558 501.999969
-61.073196 138.842667 501.999969
-58.876316 138.842651 501.999939
-56.240059 138.842667 501.999939
-53.603809 138.842667 501.999939
-50.967556 138.842667 501.999939
-48.770683 138.842667 501.999969
-46.553375 138.780823 501.777771
-43.907986 138.750092 501.666656
-41.255787 138.688431 501.444458
-38.588020 138.566086 501.000000
-35.885254 138.727158 500.000000
-33.764519 139.004578 501.000000
-31.509001 138.727142 500.000000
-28.883251 138.727142 500.000000
-26.257500 138.727158 500.000000
-23.639339 138.773529 500.166687
-21.012711 138.773529 500.166687
-18.392797 138.819931 500.333344
-16.208317 138.866302 500.500000
-14.018297 138.866013 500.500000
-11.268970 138.737640 500.714294
-8.893041 138.777161 500.857178
-6.023252 138.536987 500.500000
-3.503334 138.381119 500.333344
-1.315209 138.565521 501.000000
0.876612 138.504242 500.777771
3.508002 138.675720 501.000000
6.246879 138.641144 500.875000
8.875473 138.606552 500.750000
11.409176 138.658279 501.333344
14.060017 138.842651 501.999939
16.256893 138.842667 501.999969
18.453770 138.842651 501.999939
21.066492 138.688431 501.444458
23.709940 138.750473 501.666656
26.333549 138.688614 501.444458
28.998783 138.842667 501.999939
31.195662 138.842651 501.999969
33.392536 138.842667 501.999939
36.138634 138.842651 501.999969
38.665043 138.842667 501.999939
40.715462 138.549744 501.999969
-61.073196 141.478912 501.999969
-58.876316 141.478912 501.999939
-56.240063 141.478912 501.999939
-53.603809 141.478912 501.999939
-50.967556 141.478912 501.999939
-48.770683 141.478912 501.999969
-46.543266 141.385361 501.666656
-43.850025 141.197083 501.000000
-41.219025 141.197083 501.000000
-38.588024 141.197098 501.000000
-35.949047 141.165970 500.888885
-33.764519 141.197083 501.000000
-31.544594 141.071640 500.555573
-28.908535 141.040924 500.444458
-26.298149 141.134842 500.777771
-23.704882 141.354034 501.555573
-21.066490 141.322937 501.444458
-18.433346 141.322922 501.444458
-16.240847 141.338593 501.500000
-14.032203 141.197479 501.000000
-11.401007 141.197098 501.000000
-8.770005 141.197098 501.000000
-6.131029 141.009018 500.333344
-3.501000 140.915268 500.000000
-1.314334 141.103455 500.666687
0.877001 141.134659 500.777771
3.509753 141.260086 501.222229
6.139004 141.197098 501.000000
8.770005 141.197098 501.000000
11.423763 141.478928 501.999939
14.060017 141.478928 501.999939
16.256893 141.478912 501.999969
18.433348 141.322723 501.444458
21.052683 141.228592 501.111115
23.704884 141.353653 501.555573
26.316044 141.228226 501.111115
28.960270 141.290451 501.333344
31.185448 141.431946 501.833344
33.392536 141.478928 501.999939
36.028790 141.478912 501.999939
38.137794 141.303146 501.999969
-61.073196 144.115158 501.999969
-58.876316 144.115173 501.999939
-56.240059 144.115158 501.999939
-53.603813 144.115173 501.999939
-50.967556 144.115158 501.999939
-48.770683 144.115173 501.999969
-46.543262 144.019653 501.666656
-43.840302 143.796188 500.888885
-41.219025 143.828079 501.000000
-38.588020 143.828079 501.000000
-35.964993 143.860184 501.111115
-33.764519 143.828094 501.000000
-31.544207 143.701080 500.555573
-28.934404 143.796371 500.888885
-26.338606 143.987747 501.555573
-23.726278 144.115173 501.999939
-21.090025 144.115158 501.999939
-18.437628 143.987015 501.555573
-16.251642 144.067322 501.833344
-14.047178 143.987762 501.555573
-11.418706 144.051559 501.777771
-8.774284 143.891891 501.222229
-6.126750 143.541016 500.000000
-3.501000 143.541016 500.000000
-1.314334 143.732681 500.666687
0.877001 143.764481 500.777771
3.514421 144.083450 501.888824
6.151257 144.115173 501.999939
8.783814 144.051743 501.777740
11.423763 144.115173 501.999939
14.060016 144.115173 501.999939
16.256893 144.115173 501.999969
18.445601 144.051361 501.777771
21.057154 143.891510 501.222229
23.699633 143.955276 501.444458
26.303984 143.795990 500.888885
28.895895 143.604416 500.222229
31.195662 144.115173 501.999969
33.392536 144.115158 501.999939
36.028793 144.115173 501.999939
37.786293 144.115173 501.999969
-61.073196 146.312042 501.999969
-58.876320 146.312057 501.999969
-56.240063 146.312042 501.999969
-53.603813 146.312042 501.999969
-50.967556 146.312042 501.999969
-48.770683 146.312042 501.999969
-46.573799 146.312042 501.999969
