0.121402 -0.026154 0.223000
0.119841 -0.025373 0.223000
0.120427 -0.025764 0.223000
0.121663 -0.025634 0.223000
0.119711 -0.024333 0.223000
0.120231 -0.024593 0.223000
0.121467 -0.024593 0.223000
0.119646 -0.023812 0.223000
0.120361 -0.023552 0.223000
0.121142 -0.023682 0.223000
0.122574 -0.022251 0.223000
0.121793 -0.021275 0.223000
0.122443 -0.021600 0.223000
0.123354 -0.021665 0.223000
0.115742 -0.020299 0.223000
0.116328 -0.020299 0.223000
0.121793 -0.020494 0.223000
0.122574 -0.020494 0.223000
0.123354 -0.020494 0.223000
0.115742 -0.019908 0.223000
0.116523 -0.019713 0.223000
0.117108 -0.019518 0.223000
0.121793 -0.019713 0.223000
0.123549 -0.019713 0.223000
0.117108 -0.018542 0.223000
-0.121012 -0.013467 0.223000
-0.121012 -0.012492 0.223000
-0.121012 -0.011711 0.223000
-0.120622 -0.010345 0.223000
-0.121207 -0.009369 0.223000
-0.120492 -0.009499 0.223000
-0.121110 -0.008686 0.223000
-0.120427 -0.008588 0.223000
-0.121012 -0.007612 0.223000
-0.120492 -0.007677 0.223000
-0.121572 -0.092558 0.225000
-0.120466 -0.092670 0.225000
-0.119537 -0.092164 0.225000
-0.118946 -0.092164 0.225000
-0.120522 -0.091573 0.225000
-0.119734 -0.091770 0.225000
-0.121310 -0.090588 0.225000
-0.120522 -0.090701 0.225000
0.120522 -0.031115 0.225000
0.121704 -0.031115 0.225000
0.122360 -0.031246 0.225000
0.123476 -0.031509 0.225000
0.124461 -0.031273 0.225000
0.125642 -0.031115 0.225000
0.120259 -0.030459 0.225000
0.121507 -0.030721 0.225000
0.122294 -0.030524 0.225000
0.123279 -0.030327 0.225000
0.124198 -0.030590 0.225000
0.125248 -0.030524 0.225000
0.115402 -0.029146 0.225000
0.118946 -0.029934 0.225000
0.119577 -0.029618 0.225000
0.120456 -0.029408 0.225000
0.121507 -0.029737 0.225000
0.122491 -0.029540 0.225000
0.123437 -0.029540 0.225000
0.124067 -0.029540 0.225000
0.125248 -0.029934 0.225000
0.113432 -0.028358 0.225000
0.115270 -0.028489 0.225000
0.118946 -0.028358 0.225000
0.119603 -0.028489 0.225000
0.120522 -0.028555 0.225000
0.122754 -0.028489 0.225000
0.123476 -0.028555 0.225000
0.124067 -0.028752 0.225000
0.113301 -0.027439 0.225000
0.114456 -0.027570 0.225000
0.117634 -0.027308 0.225000
0.118602 -0.027620 0.225000
0.119537 -0.027570 0.225000
0.120522 -0.027570 0.225000
0.121310 -0.027373 0.225000
0.122442 -0.027620 0.225000
0.124539 -0.027492 0.225000
0.125347 -0.027669 0.225000
0.112645 -0.026389 0.225000
0.113039 -0.026586 0.225000
0.114417 -0.026783 0.225000
0.116846 -0.026651 0.225000
0.117568 -0.026586 0.225000
0.118631 -0.026546 0.225000
0.119537 -0.026783 0.225000
0.120443 -0.026625 0.225000
0.121507 -0.026783 0.225000
0.122590 -0.026684 0.225000
0.124854 -0.026586 0.225000
0.125380 -0.026651 0.225000
0.112645 -0.025207 0.225000
0.113432 -0.025207 0.225000
0.116780 -0.025995 0.225000
0.117568 -0.025601 0.225000
0.118159 -0.025601 0.225000
0.120522 -0.025545 0.225000
0.123279 -0.025798 0.225000
0.111857 -0.024419 0.225000
0.112448 -0.024419 0.225000
0.114417 -0.024616 0.225000
0.115008 -0.024616 0.225000
0.119734 -0.024223 0.225000
0.120227 -0.024518 0.225000
0.122885 -0.024223 0.225000
0.123279 -0.024419 0.225000
0.111857 -0.023435 0.225000
0.112251 -0.023435 0.225000
0.113531 -0.023533 0.225000
0.120522 -0.023435 0.225000
0.121507 -0.023238 0.225000
0.122570 -0.023395 0.225000
0.123476 -0.023435 0.225000
0.124198 -0.023369 0.225000
0.120653 -0.022581 0.225000
0.121507 -0.022450 0.225000
0.122491 -0.022450 0.225000
0.123476 -0.022844 0.225000
0.124461 -0.022549 0.225000
0.125445 -0.022450 0.225000
0.115796 -0.021269 0.225000
0.116583 -0.021466 0.225000
0.117371 -0.021466 0.225000
0.121704 -0.021662 0.225000
0.122294 -0.021466 0.225000
0.124854 -0.021466 0.225000
0.125445 -0.021466 0.225000
0.116485 -0.020776 0.225000
0.117568 -0.020678 0.225000
0.118159 -0.020087 0.225000
0.122294 -0.020481 0.225000
0.123476 -0.020087 0.225000
0.124592 -0.020481 0.225000
0.125445 -0.020481 0.225000
0.118553 -0.019496 0.225000
0.122885 -0.019299 0.225000
0.123476 -0.019693 0.225000
0.124362 -0.019398 0.225000
0.125380 -0.019562 0.225000
0.124592 -0.018774 0.225000
-0.121704 -0.013588 0.225000
-0.121704 -0.012604 0.225000
-0.121546 -0.011343 0.225000
-0.121310 -0.010437 0.225000
-0.121310 -0.009847 0.225000
-0.120916 -0.009256 0.225000
-0.121507 -0.008665 0.225000
-0.120916 -0.008468 0.225000
-0.120916 -0.007877 0.225000
-0.120266 -0.093365 0.226000
-0.120266 -0.092969 0.226000
-0.119673 -0.092178 0.226000
-0.120266 -0.091584 0.226000
-0.119739 -0.091650 0.226000
-0.120398 -0.090727 0.226000
0.118684 -0.031253 0.226000
0.119475 -0.031253 0.226000
0.120266 -0.031253 0.226000
0.116706 -0.030067 0.226000
0.118552 -0.030198 0.226000
0.119419 -0.030575 0.226000
0.120266 -0.030462 0.226000
0.121058 -0.030858 0.226000
0.116574 -0.029407 0.226000
0.117497 -0.029473 0.226000
0.118552 -0.029539 0.226000
0.119396 -0.029434 0.226000
0.121849 -0.029275 0.226000
0.122244 -0.029275 0.226000
0.123036 -0.029671 0.226000
0.113937 -0.028089 0.226000
0.114332 -0.028089 0.226000
0.115717 -0.028089 0.226000
0.116548 -0.028563 0.226000
0.117497 -0.028484 0.226000
0.118447 -0.028563 0.226000
0.119376 -0.028781 0.226000
0.121849 -0.028484 0.226000
0.122403 -0.028563 0.226000
0.123431 -0.028484 0.226000
0.124222 -0.028089 0.226000
0.113805 -0.027561 0.226000
0.114530 -0.027693 0.226000
0.115717 -0.027495 0.226000
0.116508 -0.027495 0.226000
0.117418 -0.027535 0.226000
0.122244 -0.027495 0.226000
0.123695 -0.027429 0.226000
0.124420 -0.027495 0.226000
0.126201 -0.027495 0.226000
0.111958 -0.026308 0.226000
0.112552 -0.026704 0.226000
0.113699 -0.026348 0.226000
0.114431 -0.026506 0.226000
0.115632 -0.026506 0.226000
0.116508 -0.026506 0.226000
0.117101 -0.026506 0.226000
0.119574 -0.026209 0.226000
0.120398 -0.026242 0.226000
0.123827 -0.026704 0.226000
0.124420 -0.026506 0.226000
0.125251 -0.026348 0.226000
0.126201 -0.026308 0.226000
0.111958 -0.025517 0.226000
0.112552 -0.025517 0.226000
0.113541 -0.025715 0.226000
0.114596 -0.025583 0.226000
0.115598 -0.025477 0.226000
0.116508 -0.025517 0.226000
0.117299 -0.025517 0.226000
0.119475 -0.025517 0.226000
0.120266 -0.025517 0.226000
0.123827 -0.025319 0.226000
0.124420 -0.025517 0.226000
0.125409 -0.025715 0.226000
0.126201 -0.025517 0.226000
0.111958 -0.024528 0.226000
0.114728 -0.024132 0.226000
0.115677 -0.024370 0.226000
0.116508 -0.024528 0.226000
0.117497 -0.024528 0.226000
0.118486 -0.024528 0.226000
0.119475 -0.024528 0.226000
0.120266 -0.024924 0.226000
0.124420 -0.024528 0.226000
0.125409 -0.024528 0.226000
0.126201 -0.024528 0.226000
0.111958 -0.023737 0.226000
0.113442 -0.023440 0.226000
0.117893 -0.023341 0.226000
0.118420 -0.023473 0.226000
0.119475 -0.023539 0.226000
0.120266 -0.023539 0.226000
0.125508 -0.023539 0.226000
0.126201 -0.023539 0.226000
0.112750 -0.022946 0.226000
0.113343 -0.022946 0.226000
0.114332 -0.022946 0.226000
0.116468 -0.022471 0.226000
0.117441 -0.022437 0.226000
0.118387 -0.022451 0.226000
0.119532 -0.022550 0.226000
0.120425 -0.022471 0.226000
0.121058 -0.022154 0.226000
0.125409 -0.022748 0.226000
0.115915 -0.021363 0.226000
0.116310 -0.021759 0.226000
0.117497 -0.021759 0.226000
0.118486 -0.021561 0.226000
0.119376 -0.021660 0.226000
0.120464 -0.021561 0.226000
0.121453 -0.021561 0.226000
0.122244 -0.021363 0.226000
0.116310 -0.020967 0.226000
0.118486 -0.020671 0.226000
0.119238 -0.020572 0.226000
0.120662 -0.020572 0.226000
0.121453 -0.020572 0.226000
0.122244 -0.020572 0.226000
0.119607 -0.019649 0.226000
0.120662 -0.019781 0.226000
0.121189 -0.019649 0.226000
0.122640 -0.019781 0.226000
0.123299 -0.019517 0.226000
0.124222 -0.019385 0.226000
0.126201 -0.019385 0.226000
0.119317 -0.018673 0.226000
0.123481 -0.018544 0.226000
0.124420 -0.018594 0.226000
0.125541 -0.018462 0.226000
0.126201 -0.018989 0.226000
0.121453 -0.017358 0.226000
0.122442 -0.017407 0.226000
0.123431 -0.017407 0.226000
0.124460 -0.017486 0.226000
0.125172 -0.017486 0.226000
0.121717 -0.016352 0.226000
0.122442 -0.016418 0.226000
0.123352 -0.016378 0.226000
0.121651 -0.015825 0.226000
0.122442 -0.015825 0.226000
-0.121566 -0.013451 0.226000
0.126201 -0.013451 0.226000
-0.121532 -0.012422 0.226000
-0.121387 -0.011473 0.226000
-0.121255 -0.010484 0.226000
-0.121156 -0.009594 0.226000
-0.121058 -0.008506 0.226000
-0.120662 -0.008308 0.226000
-0.121058 -0.007912 0.226000
-0.120136 -0.091526 0.227000
-0.120799 -0.090400 0.227000
0.117620 -0.030398 0.227000
0.118365 -0.030647 0.227000
0.119209 -0.030994 0.227000
0.120799 -0.030994 0.227000
0.118282 -0.029537 0.227000
0.116825 -0.028213 0.227000
0.112454 -0.027021 0.227000
0.112851 -0.026226 0.227000
0.113249 -0.026226 0.227000
0.115434 -0.026226 0.227000
0.112057 -0.025431 0.227000
0.115633 -0.025829 0.227000
0.125832 -0.025299 0.227000
0.126362 -0.025431 0.227000
0.112057 -0.024438 0.227000
0.125964 -0.024438 0.227000
0.112057 -0.023842 0.227000
0.114441 -0.023047 0.227000
0.115394 -0.023524 0.227000
0.116378 -0.023494 0.227000
0.117381 -0.023524 0.227000
0.118176 -0.023444 0.227000
0.119209 -0.023444 0.227000
0.125964 -0.023842 0.227000
0.113381 -0.022517 0.227000
0.114441 -0.022650 0.227000
0.116295 -0.022517 0.227000
0.119408 -0.022650 0.227000
0.120004 -0.022650 0.227000
0.113249 -0.021855 0.227000
0.116428 -0.021458 0.227000
0.120401 -0.021259 0.227000
0.116626 -0.020663 0.227000
0.120481 -0.020504 0.227000
0.120600 -0.019471 0.227000
0.121593 -0.019232 0.227000
0.122547 -0.019550 0.227000
0.123315 -0.019206 0.227000
0.119606 -0.018279 0.227000
0.121593 -0.018477 0.227000
0.122587 -0.018477 0.227000
0.123183 -0.018477 0.227000
0.126759 -0.018477 0.227000
0.120004 -0.017881 0.227000
0.121395 -0.017583 0.227000
0.124772 -0.017087 0.227000
0.125964 -0.017087 0.227000
0.126521 -0.017563 0.227000
0.121726 -0.016557 0.227000
0.124640 -0.016557 0.227000
0.125567 -0.016491 0.227000
0.126362 -0.016292 0.227000
0.122653 -0.015365 0.227000
0.123713 -0.015563 0.227000
0.124573 -0.015497 0.227000
0.125624 -0.015497 0.227000
0.126461 -0.015398 0.227000
0.125964 -0.014702 0.227000
0.126560 -0.014702 0.227000
-0.121593 -0.013510 0.227000
0.125964 -0.013709 0.227000
0.126521 -0.013510 0.227000
-0.121395 -0.012517 0.227000
0.126560 -0.012517 0.227000
-0.121295 -0.011623 0.227000
0.115633 -0.011126 0.227000
0.116229 -0.011126 0.227000
-0.121196 -0.010530 0.227000
0.116428 -0.010729 0.227000
-0.121196 -0.009338 0.227000
0.116030 -0.009934 0.227000
-0.121196 -0.008742 0.227000
-0.120732 -0.091397 0.228000
-0.120932 -0.090998 0.228000
0.112949 -0.023348 0.228000
0.116142 -0.023149 0.228000
0.114546 -0.022483 0.228000
0.115344 -0.022350 0.228000
0.116342 -0.022550 0.228000
0.113747 -0.021353 0.228000
0.114596 -0.021602 0.228000
0.115344 -0.021552 0.228000
0.116541 -0.021552 0.228000
0.114945 -0.020554 0.228000
0.114785 -0.019477 0.228000
0.121331 -0.019157 0.228000
0.123326 -0.019157 0.228000
0.120932 -0.018559 0.228000
0.121331 -0.018559 0.228000
0.120932 -0.017960 0.228000
0.121331 -0.017960 0.228000
0.127317 -0.017162 0.228000
0.126918 -0.016763 0.228000
0.127317 -0.016563 0.228000
0.122528 -0.015565 0.228000
0.123725 -0.015166 0.228000
0.124124 -0.015166 0.228000
0.125721 -0.015565 0.228000
0.126120 -0.015565 0.228000
0.127317 -0.015765 0.228000
-0.121530 -0.014368 0.228000
0.123725 -0.014767 0.228000
0.124524 -0.014767 0.228000
0.125521 -0.014767 0.228000
0.126519 -0.014501 0.228000
0.127317 -0.014368 0.228000
-0.121530 -0.013570 0.228000
0.124923 -0.013570 0.228000
0.125322 -0.013370 0.228000
-0.121464 -0.012639 0.228000
0.125322 -0.012572 0.228000
0.126120 -0.012373 0.228000
-0.121331 -0.011574 0.228000
0.115743 -0.011175 0.228000
0.117539 -0.011175 0.228000
0.118138 -0.011175 0.228000
-0.121331 -0.010577 0.228000
0.115743 -0.010776 0.228000
0.116541 -0.010510 0.228000
0.117539 -0.010577 0.228000
0.118537 -0.010776 0.228000
0.119335 -0.010776 0.228000
-0.121430 -0.009679 0.228000
0.116541 -0.009978 0.228000
0.117340 -0.009978 0.228000
-0.121331 -0.008781 0.228000
-0.120660 -0.092199 0.229000
-0.121061 -0.091397 0.229000
-0.120660 -0.091598 0.229000
-0.121262 -0.090796 0.229000
-0.120660 -0.090796 0.229000
-0.120460 -0.089593 0.229000
0.113846 -0.022448 0.229000
0.115449 -0.022448 0.229000
0.116411 -0.022368 0.229000
0.113846 -0.021246 0.229000
0.114647 -0.021246 0.229000
0.116451 -0.021446 0.229000
0.113645 -0.020244 0.229000
0.114447 -0.020444 0.229000
0.115449 -0.020444 0.229000
0.114514 -0.019509 0.229000
0.115850 -0.019442 0.229000
0.116251 -0.019442 0.229000
0.115048 -0.018841 0.229000
0.121662 -0.017638 0.229000
0.122665 -0.015433 0.229000
0.123065 -0.015233 0.229000
-0.121562 -0.014531 0.229000
0.123734 -0.014698 0.229000
0.124535 -0.014298 0.229000
0.125471 -0.014231 0.229000
0.126473 -0.014231 0.229000
-0.121462 -0.013429 0.229000
0.119558 -0.013429 0.229000
0.121662 -0.013229 0.229000
0.122264 -0.013229 0.229000
0.123867 -0.013429 0.229000
0.124468 -0.013429 0.229000
0.125203 -0.013362 0.229000
0.126406 -0.013496 0.229000
-0.121462 -0.012427 0.229000
0.116251 -0.012026 0.229000
0.119458 -0.012828 0.229000
0.121729 -0.012560 0.229000
0.122264 -0.012427 0.229000
0.123867 -0.012627 0.229000
0.124468 -0.012427 0.229000
0.125404 -0.012427 0.229000
0.126406 -0.012427 0.229000
-0.121462 -0.011425 0.229000
0.115850 -0.011425 0.229000
0.116251 -0.011625 0.229000
0.117854 -0.011625 0.229000
0.119458 -0.011224 0.229000
0.124268 -0.011625 0.229000
0.125671 -0.011625 0.229000
0.126673 -0.011625 0.229000
-0.121462 -0.010422 0.229000
0.115850 -0.010823 0.229000
0.116451 -0.010222 0.229000
0.118455 -0.010222 0.229000
0.119057 -0.010823 0.229000
0.120259 -0.010823 0.229000
-0.121462 -0.009420 0.229000
0.118455 -0.009621 0.229000
-0.121310 -0.092398 0.231000
-0.120602 -0.092296 0.231000
-0.121310 -0.091589 0.231000
-0.120582 -0.091548 0.231000
-0.119692 -0.091589 0.231000
-0.121444 -0.090847 0.231000
-0.120501 -0.090578 0.231000
-0.120420 -0.089607 0.231000
0.112818 -0.025273 0.231000
0.113425 -0.024464 0.231000
0.114435 -0.023184 0.231000
0.111201 -0.022644 0.231000
0.113627 -0.022644 0.231000
0.114301 -0.022510 0.231000
0.111201 -0.021634 0.231000
0.114840 -0.021431 0.231000
0.117468 -0.021027 0.231000
0.118075 -0.021027 0.231000
0.114031 -0.020623 0.231000
0.117468 -0.020420 0.231000
0.118398 -0.020461 0.231000
0.119288 -0.020623 0.231000
0.114638 -0.019814 0.231000
0.115446 -0.019207 0.231000
0.116659 -0.019005 0.231000
0.117569 -0.019308 0.231000
0.118210 -0.019679 0.231000
0.113627 -0.018601 0.231000
0.114031 -0.018601 0.231000
0.116255 -0.018601 0.231000
0.117266 -0.018399 0.231000
0.117468 -0.017792 0.231000
0.118075 -0.017388 0.231000
-0.122118 -0.016983 0.231000
0.122792 -0.016309 0.231000
0.123331 -0.016579 0.231000
-0.122523 -0.015568 0.231000
0.110796 -0.015366 0.231000
0.111605 -0.015568 0.231000
0.112211 -0.015568 0.231000
0.113627 -0.015366 0.231000
0.114435 -0.015366 0.231000
0.118479 -0.015366 0.231000
0.119288 -0.015366 0.231000
0.122725 -0.015568 0.231000
0.123331 -0.015568 0.231000
-0.122118 -0.014557 0.231000
-0.121512 -0.014153 0.231000
0.112346 -0.014557 0.231000
0.113425 -0.014557 0.231000
0.114435 -0.014759 0.231000
0.118479 -0.014759 0.231000
0.119530 -0.014638 0.231000
0.120501 -0.014557 0.231000
0.121411 -0.014456 0.231000
0.122638 -0.014499 0.231000
0.123534 -0.014557 0.231000
0.124410 -0.014422 0.231000
0.125353 -0.014153 0.231000
-0.122118 -0.013546 0.231000
-0.121579 -0.013479 0.231000
0.111605 -0.013546 0.231000
0.112414 -0.013546 0.231000
0.113492 -0.013614 0.231000
0.119692 -0.013344 0.231000
0.120097 -0.013344 0.231000
0.121512 -0.013546 0.231000
0.122422 -0.013647 0.231000
0.123601 -0.013614 0.231000
0.124342 -0.013546 0.231000
-0.122118 -0.012535 0.231000
-0.121512 -0.012535 0.231000
0.112009 -0.012940 0.231000
0.113425 -0.012535 0.231000
0.114638 -0.012333 0.231000
0.115446 -0.012333 0.231000
0.116457 -0.012333 0.231000
0.120744 -0.012454 0.231000
0.121512 -0.012535 0.231000
0.122388 -0.012468 0.231000
0.123736 -0.012535 0.231000
0.124545 -0.012636 0.231000
0.126162 -0.012131 0.231000
0.127577 -0.012535 0.231000
0.128453 -0.012266 0.231000
-0.122118 -0.011524 0.231000
-0.121579 -0.011592 0.231000
0.115446 -0.011727 0.231000
0.116255 -0.011524 0.231000
0.119490 -0.011727 0.231000
0.120703 -0.011727 0.231000
0.121310 -0.011322 0.231000
0.122792 -0.011592 0.231000
0.123331 -0.011524 0.231000
0.124949 -0.011524 0.231000
0.125623 -0.011457 0.231000
0.126465 -0.011423 0.231000
0.127510 -0.011457 0.231000
0.128184 -0.011524 0.231000
-0.122118 -0.010514 0.231000
-0.121552 -0.010433 0.231000
0.116407 -0.010463 0.231000
0.120400 -0.010412 0.231000
0.125623 -0.010783 0.231000
0.126682 -0.010571 0.231000
0.127577 -0.010109 0.231000
0.128538 -0.010463 0.231000
-0.122118 -0.009503 0.231000
-0.121714 -0.009705 0.231000
0.119692 -0.009300 0.231000
0.120097 -0.009705 0.231000
0.126566 -0.009705 0.231000
0.127577 -0.009705 0.231000
0.128588 -0.009705 0.231000
-0.122523 -0.008896 0.231000
-0.120210 -0.091376 0.232000
-0.119804 -0.091376 0.232000
-0.120210 -0.090564 0.232000
-0.119601 -0.090564 0.232000
-0.120413 -0.089549 0.232000
-0.119601 -0.089752 0.232000
-0.120616 -0.088939 0.232000
0.113306 -0.026398 0.232000
0.111276 -0.025991 0.232000
0.113306 -0.025991 0.232000
0.113306 -0.024570 0.232000
0.111682 -0.023555 0.232000
0.112088 -0.023352 0.232000
0.113509 -0.023758 0.232000
0.114119 -0.023555 0.232000
0.111682 -0.022336 0.232000
0.112291 -0.022539 0.232000
0.113509 -0.022742 0.232000
0.114322 -0.022336 0.232000
0.111682 -0.021118 0.232000
0.112443 -0.021473 0.232000
0.114829 -0.021423 0.232000
0.111682 -0.020509 0.232000
0.112494 -0.020509 0.232000
0.113509 -0.020509 0.232000
0.114254 -0.020441 0.232000
0.119601 -0.020306 0.232000
0.111682 -0.019900 0.232000
0.112900 -0.019900 0.232000
0.114525 -0.019900 0.232000
0.115472 -0.019223 0.232000
0.118586 -0.019087 0.232000
0.112900 -0.018478 0.232000
0.113712 -0.018681 0.232000
0.114525 -0.018411 0.232000
0.115337 -0.018681 0.232000
0.116555 -0.018411 0.232000
0.117368 -0.018478 0.232000
0.118383 -0.018478 0.232000
-0.122241 -0.017260 0.232000
0.112765 -0.017463 0.232000
0.113712 -0.017057 0.232000
0.114220 -0.017565 0.232000
0.117774 -0.017260 0.232000
0.118644 -0.017405 0.232000
0.123256 -0.017057 0.232000
-0.122512 -0.016515 0.232000
0.111682 -0.016245 0.232000
0.112494 -0.016448 0.232000
0.113509 -0.016448 0.232000
0.114119 -0.016448 0.232000
0.118667 -0.016488 0.232000
0.123053 -0.016651 0.232000
-0.122444 -0.015432 0.232000
0.110870 -0.015635 0.232000
0.111479 -0.015635 0.232000
0.112697 -0.015635 0.232000
0.113469 -0.015514 0.232000
0.114119 -0.015839 0.232000
0.118586 -0.015839 0.232000
0.119601 -0.015839 0.232000
0.120413 -0.015635 0.232000
0.121530 -0.015534 0.232000
0.122444 -0.015229 0.232000
-0.122241 -0.014620 0.232000
-0.121835 -0.014620 0.232000
0.112900 -0.014417 0.232000
0.114660 -0.014349 0.232000
0.115540 -0.014214 0.232000
0.119804 -0.014214 0.232000
0.122444 -0.014620 0.232000
-0.121632 -0.013605 0.232000
0.114728 -0.013605 0.232000
0.115337 -0.013402 0.232000
-0.121429 -0.012590 0.232000
0.112494 -0.012996 0.232000
0.113509 -0.012590 0.232000
0.114443 -0.012590 0.232000
0.115743 -0.012996 0.232000
0.120413 -0.012590 0.232000
0.121835 -0.012590 0.232000
0.122241 -0.012590 0.232000
0.124542 -0.012454 0.232000
0.125084 -0.012183 0.232000
0.129145 -0.012183 0.232000
-0.121632 -0.011574 0.232000
0.114931 -0.011777 0.232000
0.115472 -0.011507 0.232000
0.116149 -0.011371 0.232000
0.120616 -0.011777 0.232000
0.121835 -0.011777 0.232000
0.122444 -0.011574 0.232000
0.123053 -0.011371 0.232000
0.124475 -0.011574 0.232000
0.125084 -0.011574 0.232000
0.129280 -0.011642 0.232000
-0.121835 -0.010965 0.232000
0.116149 -0.010965 0.232000
0.121530 -0.010254 0.232000
0.122444 -0.010965 0.232000
0.123662 -0.010965 0.232000
0.125761 -0.010559 0.232000
0.126573 -0.010288 0.232000
0.129551 -0.010965 0.232000
-0.122241 -0.009341 0.232000
-0.121835 -0.009544 0.232000
0.120616 -0.009341 0.232000
0.121429 -0.009584 0.232000
0.122241 -0.009341 0.232000
0.126708 -0.009544 0.232000
0.127520 -0.009442 0.232000
0.128536 -0.009341 0.232000
0.129348 -0.009341 0.232000
-0.122444 -0.008935 0.232000
-0.121699 -0.008799 0.232000
0.120616 -0.008731 0.232000
0.121023 -0.008935 0.232000
0.126708 -0.008935 0.232000
0.127404 -0.008586 0.232000
0.129145 -0.008935 0.232000
0.125490 -0.006498 0.232000
0.127520 -0.006904 0.232000
0.128333 -0.006904 0.232000
0.129145 -0.006904 0.232000
0.127114 -0.005686 0.232000
0.128603 -0.005415 0.232000
0.129145 -0.005483 0.232000
-0.119342 -0.090465 0.233000
-0.120525 -0.089527 0.233000
-0.119777 -0.089595 0.233000
-0.120457 -0.088779 0.233000
0.121748 -0.039359 0.233000
0.122360 -0.039155 0.233000
0.121680 -0.038611 0.233000
0.121544 -0.037932 0.233000
0.112163 -0.026103 0.233000
0.111755 -0.025696 0.233000
0.112163 -0.025696 0.233000
0.112571 -0.024268 0.233000
0.112979 -0.023452 0.233000
0.113591 -0.023452 0.233000
0.114203 -0.023248 0.233000
0.113550 -0.022351 0.233000
0.114407 -0.022229 0.233000
0.113795 -0.021413 0.233000
0.114407 -0.021413 0.233000
0.115018 -0.021617 0.233000
0.113795 -0.020393 0.233000
0.114203 -0.020801 0.233000
0.112707 -0.019646 0.233000
0.113523 -0.019578 0.233000
0.114407 -0.019578 0.233000
0.115222 -0.019374 0.233000
0.111348 -0.018762 0.233000
0.112843 -0.018626 0.233000
0.113795 -0.018762 0.233000
0.114203 -0.018354 0.233000
0.116446 -0.018558 0.233000
0.119505 -0.018558 0.233000
-0.122360 -0.017334 0.233000
0.112979 -0.017742 0.233000
0.113693 -0.017436 0.233000
0.114203 -0.017742 0.233000
0.115222 -0.017436 0.233000
0.117466 -0.017946 0.233000
0.119913 -0.017334 0.233000
-0.122496 -0.016451 0.233000
0.118417 -0.016451 0.233000
0.119913 -0.016519 0.233000
0.121136 -0.016315 0.233000
0.122496 -0.016451 0.233000
0.123176 -0.016315 0.233000
-0.122462 -0.015601 0.233000
-0.121952 -0.015091 0.233000
0.112163 -0.015907 0.233000
0.118281 -0.015907 0.233000
0.121748 -0.015907 0.233000
0.122768 -0.015907 0.233000
0.123176 -0.015907 0.233000
-0.121748 -0.014479 0.233000
-0.121476 -0.013460 0.233000
0.115562 -0.013324 0.233000
-0.121408 -0.012508 0.233000
0.112979 -0.012644 0.233000
0.113591 -0.012644 0.233000
-0.121748 -0.011318 0.233000
0.112843 -0.011556 0.233000
0.113387 -0.011420 0.233000
0.114203 -0.011624 0.233000
0.115324 -0.011420 0.233000
0.116242 -0.011012 0.233000
0.123584 -0.011012 0.233000
0.124807 -0.011012 0.233000
0.125419 -0.011012 0.233000
-0.121748 -0.010401 0.233000
0.116242 -0.010605 0.233000
0.122768 -0.010401 0.233000
0.123787 -0.010605 0.233000
0.124603 -0.010605 0.233000
0.125419 -0.010605 0.233000
0.126031 -0.010605 0.233000
-0.121952 -0.009585 0.233000
0.121952 -0.009381 0.233000
0.122768 -0.009789 0.233000
0.126846 -0.009585 0.233000
-0.123176 -0.008565 0.233000
-0.122768 -0.008565 0.233000
0.121626 -0.008484 0.233000
0.122632 -0.008837 0.233000
0.125623 -0.008565 0.233000
0.126745 -0.008463 0.233000
0.127254 -0.008361 0.233000
0.128723 -0.008484 0.233000
0.129566 -0.008565 0.233000
0.125419 -0.007546 0.233000
0.126439 -0.007546 0.233000
0.127458 -0.007546 0.233000
0.128478 -0.007546 0.233000
0.125419 -0.006526 0.233000
0.126490 -0.006526 0.233000
0.127417 -0.006444 0.233000
0.128274 -0.006322 0.233000
0.129498 -0.006424 0.233000
0.125623 -0.005710 0.233000
0.126439 -0.005710 0.233000
0.127254 -0.005710 0.233000
0.128478 -0.005608 0.233000
0.130109 -0.005710 0.233000
0.129498 -0.004894 0.233000
-0.119301 -0.090423 0.234000
-0.118652 -0.090252 0.234000
-0.120154 -0.089433 0.234000
-0.119403 -0.089501 0.234000
-0.118789 -0.089706 0.234000
-0.120182 -0.088559 0.234000
-0.119472 -0.088750 0.234000
0.121656 -0.039733 0.234000
0.121656 -0.038914 0.234000
0.122475 -0.038299 0.234000
0.112645 -0.026625 0.234000
0.113874 -0.026420 0.234000
0.112440 -0.025396 0.234000
0.113464 -0.025806 0.234000
0.112645 -0.024987 0.234000
0.113737 -0.024440 0.234000
0.113874 -0.023348 0.234000
0.114693 -0.022119 0.234000
0.115512 -0.022119 0.234000
0.112645 -0.019252 0.234000
0.113054 -0.019252 0.234000
0.114420 -0.019525 0.234000
0.115102 -0.019662 0.234000
-0.122066 -0.018023 0.234000
-0.121656 -0.018228 0.234000
0.112440 -0.018842 0.234000
0.113054 -0.018023 0.234000
0.114283 -0.018433 0.234000
0.115922 -0.018433 0.234000
0.116331 -0.018228 0.234000
-0.122271 -0.017409 0.234000
-0.121656 -0.017409 0.234000
0.112645 -0.017204 0.234000
0.113054 -0.017204 0.234000
0.115922 -0.017614 0.234000
0.122885 -0.017204 0.234000
0.123568 -0.017340 0.234000
-0.122271 -0.016589 0.234000
-0.121656 -0.016589 0.234000
0.120837 -0.016589 0.234000
0.121383 -0.016658 0.234000
0.122339 -0.016521 0.234000
0.123500 -0.016794 0.234000
-0.122230 -0.015647 0.234000
-0.121656 -0.015565 0.234000
-0.121451 -0.014541 0.234000
-0.121349 -0.013620 0.234000
-0.121451 -0.012493 0.234000
0.113362 -0.012391 0.234000
0.114283 -0.012289 0.234000
-0.122066 -0.011469 0.234000
-0.121656 -0.011469 0.234000
0.113464 -0.011879 0.234000
0.114283 -0.011674 0.234000
0.115102 -0.011674 0.234000
-0.121656 -0.010445 0.234000
0.123704 -0.010445 0.234000
0.124524 -0.010240 0.234000
0.125548 -0.010240 0.234000
0.126367 -0.010240 0.234000
-0.122066 -0.009421 0.234000
-0.121656 -0.009831 0.234000
0.123704 -0.009421 0.234000
0.124114 -0.009831 0.234000
0.125752 -0.009421 0.234000
0.126623 -0.009472 0.234000
0.122749 -0.008329 0.234000
0.123568 -0.008329 0.234000
0.125752 -0.008397 0.234000
0.126572 -0.008500 0.234000
0.122680 -0.007578 0.234000
0.123500 -0.007578 0.234000
0.125343 -0.007783 0.234000
0.129849 -0.007373 0.234000
0.130463 -0.007373 0.234000
0.122680 -0.006554 0.234000
0.123602 -0.006656 0.234000
0.124524 -0.006554 0.234000
0.125343 -0.006554 0.234000
0.129576 -0.006417 0.234000
0.130668 -0.006963 0.234000
0.125752 -0.005735 0.234000
0.126162 -0.005325 0.234000
0.128415 -0.005325 0.234000
-0.119529 -0.090197 0.236000
-0.118978 -0.090473 0.236000
-0.120217 -0.089233 0.236000
-0.119804 -0.089647 0.236000
-0.120424 -0.088820 0.236000
-0.122283 -0.018384 0.236000
-0.121732 -0.018453 0.236000
0.113470 -0.018315 0.236000
0.117739 -0.018590 0.236000
0.118152 -0.018177 0.236000
0.123935 -0.018177 0.236000
0.124349 -0.018177 0.236000
-0.122283 -0.017558 0.236000
-0.121870 -0.017558 0.236000
0.113194 -0.017764 0.236000
0.117326 -0.017351 0.236000
0.118771 -0.017764 0.236000
0.119391 -0.017764 0.236000
0.122283 -0.017558 0.236000
0.123522 -0.017489 0.236000
0.124349 -0.017764 0.236000
-0.122283 -0.016525 0.236000
-0.121870 -0.016525 0.236000
0.117326 -0.016525 0.236000
0.123109 -0.016938 0.236000
-0.122283 -0.015492 0.236000
-0.121870 -0.015492 0.236000
-0.121870 -0.014666 0.236000
0.125381 -0.009502 0.236000
0.126414 -0.009502 0.236000
0.125312 -0.008400 0.236000
0.126414 -0.008469 0.236000
0.125340 -0.007519 0.236000
0.126104 -0.007436 0.236000
0.123935 -0.006197 0.236000
0.124349 -0.006403 0.236000
0.125175 -0.006403 0.236000
0.126001 -0.006403 0.236000
0.123729 -0.005784 0.236000
0.124555 -0.005577 0.236000
0.125381 -0.005577 0.236000
0.126331 -0.005536 0.236000
0.127653 -0.005371 0.236000
0.128686 -0.005371 0.236000
0.124762 -0.004957 0.236000
0.125588 -0.004957 0.236000
0.118978 -0.002479 0.236000
-0.119482 -0.090338 0.237000
-0.120312 -0.089404 0.237000
-0.119897 -0.089612 0.237000
-0.121764 -0.019084 0.237000
0.121971 -0.019291 0.237000
-0.121695 -0.018393 0.237000
0.118238 -0.018254 0.237000
0.121971 -0.018669 0.237000
-0.121971 -0.017424 0.237000
0.117823 -0.017839 0.237000
0.118341 -0.017424 0.237000
0.119565 -0.017259 0.237000
0.122386 -0.017632 0.237000
0.123216 -0.017424 0.237000
0.124046 -0.017839 0.237000
-0.121971 -0.016387 0.237000
0.118238 -0.016387 0.237000
0.119690 -0.016595 0.237000
-0.121971 -0.015558 0.237000
0.118238 -0.015558 0.237000
-0.121971 -0.014520 0.237000
0.126397 -0.008574 0.237000
0.124253 -0.005393 0.237000
0.128609 -0.005393 0.237000
0.124737 -0.004840 0.237000
0.125539 -0.004481 0.237000
0.126452 -0.004647 0.237000
0.127641 -0.004840 0.237000
0.128194 -0.004978 0.237000
0.130269 -0.004978 0.237000
0.131513 -0.004564 0.237000
0.097494 -0.003319 0.237000
0.098531 -0.003319 0.237000
0.099361 -0.003319 0.237000
0.105584 -0.003319 0.237000
0.117823 -0.003319 0.237000
0.118445 -0.003319 0.237000
0.126120 -0.003734 0.237000
0.127779 -0.003734 0.237000
0.097390 -0.002800 0.237000
0.098531 -0.002904 0.237000
0.099154 -0.002904 0.237000
0.105543 -0.002572 0.237000
0.106414 -0.002904 0.237000
0.107368 -0.002738 0.237000
0.108419 -0.002766 0.237000
0.109629 -0.002800 0.237000
0.111323 -0.002489 0.237000
0.118486 -0.002572 0.237000
0.119482 -0.002489 0.237000
0.120519 -0.002697 0.237000
0.121349 -0.002697 0.237000
0.104132 -0.001659 0.237000
0.105377 -0.001659 0.237000
0.109940 -0.001245 0.237000
0.111185 -0.001659 0.237000
0.118652 -0.001659 0.237000
0.119565 -0.001494 0.237000
0.103510 -0.000622 0.237000
0.104339 -0.000622 0.237000
-0.119361 -0.090615 0.238000
-0.118736 -0.090615 0.238000
-0.120403 -0.089365 0.238000
-0.119736 -0.089740 0.238000
-0.121653 -0.019164 0.238000
-0.121653 -0.018540 0.238000
0.124569 -0.018331 0.238000
-0.122069 -0.017498 0.238000
-0.121653 -0.017498 0.238000
0.119292 -0.017359 0.238000
0.123736 -0.017915 0.238000
0.124152 -0.017915 0.238000
-0.122069 -0.016456 0.238000
-0.121653 -0.016665 0.238000
0.119466 -0.016456 0.238000
-0.122069 -0.015623 0.238000
0.119153 -0.015623 0.238000
-0.122208 -0.014859 0.238000
0.124708 -0.004722 0.238000
0.125402 -0.004166 0.238000
0.127569 -0.004333 0.238000
0.128596 -0.004305 0.238000
0.130818 -0.004374 0.238000
0.131652 -0.004999 0.238000
0.100613 -0.003333 0.238000
0.101447 -0.003333 0.238000
0.102488 -0.003333 0.238000
0.103530 -0.003333 0.238000
0.104571 -0.003333 0.238000
0.105405 -0.003333 0.238000
0.117487 -0.003333 0.238000
0.125819 -0.003750 0.238000
0.126444 -0.003541 0.238000
0.127485 -0.003583 0.238000
0.128596 -0.003472 0.238000
0.097905 -0.002500 0.238000
0.098530 -0.002291 0.238000
0.099572 -0.002430 0.238000
0.100544 -0.002777 0.238000
0.101447 -0.002916 0.238000
0.102072 -0.002916 0.238000
0.103530 -0.002500 0.238000
0.104571 -0.002500 0.238000
0.105405 -0.002500 0.238000
0.106516 -0.002222 0.238000
0.107488 -0.002222 0.238000
0.108321 -0.002500 0.238000
0.109571 -0.002396 0.238000
0.110682 -0.002500 0.238000
0.111237 -0.002916 0.238000
0.112320 -0.002416 0.238000
0.117606 -0.002559 0.238000
0.118424 -0.002396 0.238000
0.120820 -0.002083 0.238000
0.121444 -0.002083 0.238000
0.128485 -0.002500 0.238000
0.103530 -0.001666 0.238000
0.104849 -0.001389 0.238000
0.105543 -0.001389 0.238000
0.106238 -0.001666 0.238000
0.107696 -0.001250 0.238000
0.108738 -0.001250 0.238000
0.109779 -0.001458 0.238000
0.110612 -0.001458 0.238000
0.111654 -0.001250 0.238000
0.112209 -0.001528 0.238000
0.119570 -0.001250 0.238000
0.121236 -0.001666 0.238000
0.105613 -0.000625 0.238000
0.110821 -0.000833 0.238000
-0.119314 -0.091376 0.240000
-0.120364 -0.090326 0.240000
-0.119734 -0.090536 0.240000
-0.121415 -0.089486 0.240000
-0.120742 -0.089402 0.240000
-0.120785 -0.088435 0.240000
0.121625 -0.060707 0.240000
0.121835 -0.059447 0.240000
0.122465 -0.059447 0.240000
0.121835 -0.058817 0.240000
0.122465 -0.058607 0.240000
0.121835 -0.057556 0.240000
0.122507 -0.057556 0.240000
0.113853 -0.027308 0.240000
0.114273 -0.027308 0.240000
0.113642 -0.026468 0.240000
0.114441 -0.026384 0.240000
0.113853 -0.025627 0.240000
0.114693 -0.025627 0.240000
-0.122255 -0.019326 0.240000
0.123935 -0.019326 0.240000
0.124566 -0.019746 0.240000
0.125616 -0.019326 0.240000
0.126036 -0.019326 0.240000
-0.122255 -0.018485 0.240000
0.123935 -0.018695 0.240000
0.124566 -0.018695 0.240000
0.125336 -0.018765 0.240000
0.126036 -0.018905 0.240000
-0.122255 -0.017435 0.240000
-0.122395 -0.016525 0.240000
-0.122465 -0.015544 0.240000
-0.122465 -0.014704 0.240000
0.130447 -0.005041 0.240000
0.131288 -0.005041 0.240000
0.125616 -0.004201 0.240000
0.126036 -0.004201 0.240000
0.130447 -0.004411 0.240000
0.131498 -0.004411 0.240000
0.132548 -0.004411 0.240000
0.113853 -0.003361 0.240000
0.114483 -0.003571 0.240000
0.115533 -0.003571 0.240000
0.116793 -0.003781 0.240000
0.117354 -0.003501 0.240000
0.125616 -0.003781 0.240000
0.126246 -0.003781 0.240000
0.127296 -0.003361 0.240000
0.128557 -0.003361 0.240000
0.130377 -0.003641 0.240000
0.131708 -0.003781 0.240000
0.132338 -0.003781 0.240000
0.133388 -0.003781 0.240000
0.134018 -0.003781 0.240000
0.100829 -0.002101 0.240000
0.101529 -0.002241 0.240000
0.102509 -0.002311 0.240000
0.103560 -0.002521 0.240000
0.107971 -0.002101 0.240000
0.109441 -0.002101 0.240000
0.110492 -0.002101 0.240000
0.111752 -0.002101 0.240000
0.112172 -0.002521 0.240000
0.113853 -0.002521 0.240000
0.114273 -0.002941 0.240000
0.115533 -0.002941 0.240000
0.117424 -0.002941 0.240000
0.118054 -0.002521 0.240000
0.123725 -0.002521 0.240000
0.124566 -0.002941 0.240000
0.127716 -0.002941 0.240000
0.128609 -0.002573 0.240000
0.129817 -0.002521 0.240000
0.130405 -0.002521 0.240000
0.101669 -0.001680 0.240000
0.103630 -0.001540 0.240000
0.104400 -0.001260 0.240000
0.105030 -0.001680 0.240000
0.107656 -0.001470 0.240000
0.108601 -0.001680 0.240000
0.109651 -0.001680 0.240000
0.111752 -0.001680 0.240000
0.112172 -0.001680 0.240000
0.113712 -0.001400 0.240000
0.122675 -0.001680 0.240000
0.123095 -0.001680 0.240000
0.128837 -0.001540 0.240000
0.130447 -0.001680 0.240000
0.131077 -0.001260 0.240000
0.113432 -0.000840 0.240000
-0.119530 -0.091546 0.241000
-0.118757 -0.091757 0.241000
-0.120444 -0.090280 0.241000
-0.119811 -0.090702 0.241000
-0.120444 -0.089437 0.241000
-0.119811 -0.089437 0.241000
-0.118967 -0.089437 0.241000
-0.121077 -0.088171 0.241000
-0.120655 -0.088593 0.241000
-0.121077 -0.087749 0.241000
-0.120655 -0.087327 0.241000
-0.118124 -0.073405 0.241000
-0.117702 -0.073405 0.241000
-0.118124 -0.072984 0.241000
-0.117702 -0.072984 0.241000
0.122553 -0.062542 0.241000
0.123186 -0.062437 0.241000
0.122342 -0.061382 0.241000
0.123186 -0.061593 0.241000
0.122624 -0.060468 0.241000
0.123186 -0.060538 0.241000
0.123608 -0.058218 0.241000
0.115171 -0.027422 0.241000
0.112639 -0.026367 0.241000
0.113483 -0.026578 0.241000
0.114327 -0.026367 0.241000
0.115171 -0.027000 0.241000
-0.122342 -0.019406 0.241000
0.124874 -0.019406 0.241000
0.125577 -0.019547 0.241000
-0.122342 -0.018562 0.241000
-0.121921 -0.018562 0.241000
-0.122342 -0.017508 0.241000
-0.121921 -0.017508 0.241000
-0.122342 -0.016453 0.241000
-0.121921 -0.016453 0.241000
-0.122342 -0.015398 0.241000
-0.121921 -0.015398 0.241000
-0.122342 -0.014765 0.241000
-0.121921 -0.014765 0.241000
0.131624 -0.004430 0.241000
0.116858 -0.003586 0.241000
0.117280 -0.003375 0.241000
0.126561 -0.003375 0.241000
0.127405 -0.003375 0.241000
0.131483 -0.003516 0.241000
0.132467 -0.003375 0.241000
0.133452 -0.003516 0.241000
0.134366 -0.003375 0.241000
0.112639 -0.002109 0.241000
0.114749 -0.002320 0.241000
0.115339 -0.002616 0.241000
0.116489 -0.002478 0.241000
0.117449 -0.002447 0.241000
0.118264 -0.002250 0.241000
0.124452 -0.002250 0.241000
0.125577 -0.002672 0.241000
0.126350 -0.002742 0.241000
0.127686 -0.002812 0.241000
0.128389 -0.002250 0.241000
0.131518 -0.002531 0.241000
0.132151 -0.002637 0.241000
0.134366 -0.002953 0.241000
0.100827 -0.001687 0.241000
0.101460 -0.001687 0.241000
0.102515 -0.001547 0.241000
0.103569 -0.001477 0.241000
0.105468 -0.001266 0.241000
0.109686 -0.001477 0.241000
0.110530 -0.001477 0.241000
0.114749 -0.001687 0.241000
0.118967 -0.001687 0.241000
0.119600 -0.001687 0.241000
0.128671 -0.001477 0.241000
0.129092 -0.001266 0.241000
0.131624 -0.001687 0.241000
0.132045 -0.001477 0.241000
0.104202 -0.000633 0.241000
0.129514 -0.000844 0.241000
0.130569 -0.000844 0.241000
0.129725 -0.000000 0.241000
-0.119546 -0.091333 0.242000
-0.118614 -0.091926 0.242000
-0.120308 -0.090443 0.242000
-0.119355 -0.090337 0.242000
-0.120308 -0.089384 0.242000
-0.119461 -0.089808 0.242000
-0.121156 -0.088325 0.242000
-0.120732 -0.088960 0.242000
-0.120520 -0.087266 0.242000
-0.120520 -0.086419 0.242000
-0.119546 -0.074473 0.242000
-0.118614 -0.074557 0.242000
-0.120520 -0.073286 0.242000
-0.119320 -0.073569 0.242000
-0.119038 -0.072863 0.242000
-0.118402 -0.072863 0.242000
0.122638 -0.062696 0.242000
0.123274 -0.062272 0.242000
0.123415 -0.061566 0.242000
-0.122215 -0.019275 0.242000
-0.122003 -0.018428 0.242000
-0.122003 -0.017580 0.242000
-0.122109 -0.016521 0.242000
-0.122003 -0.015462 0.242000
-0.122003 -0.014827 0.242000
0.116072 -0.002118 0.242000
0.125604 -0.002118 0.242000
0.126451 -0.002118 0.242000
0.127581 -0.002401 0.242000
0.128357 -0.002118 0.242000
0.133494 -0.002489 0.242000
0.134570 -0.002542 0.242000
0.135135 -0.002330 0.242000
0.102516 -0.001271 0.242000
0.103575 -0.001271 0.242000
0.115437 -0.001483 0.242000
0.116496 -0.001694 0.242000
0.117625 -0.001553 0.242000
0.118402 -0.001694 0.242000
0.119038 -0.001694 0.242000
0.128640 -0.001553 0.242000
0.133017 -0.001694 0.242000
0.103787 -0.000847 0.242000
0.104211 -0.000847 0.242000
0.127934 -0.000424 0.242000
0.129416 -0.000635 0.242000
0.130475 -0.000424 0.242000
0.131746 -0.000847 0.242000
0.130899 -0.000000 0.242000
-0.119381 -0.092258 0.244000
-0.118526 -0.092472 0.244000
-0.117886 -0.092258 0.244000
-0.120448 -0.091546 0.244000
-0.119381 -0.091618 0.244000
-0.118526 -0.091404 0.244000
-0.120448 -0.090123 0.244000
-0.119381 -0.090977 0.244000
-0.118526 -0.090977 0.244000
-0.117672 -0.090977 0.244000
-0.116604 -0.090550 0.244000
-0.121445 -0.089411 0.244000
-0.121516 -0.088628 0.244000
-0.121516 -0.087560 0.244000
-0.120876 -0.087560 0.244000
-0.120876 -0.086492 0.244000
-0.120876 -0.085638 0.244000
-0.120591 -0.084428 0.244000
-0.120662 -0.083502 0.244000
-0.120395 -0.082488 0.244000
-0.119594 -0.082007 0.244000
-0.120448 -0.081153 0.244000
-0.119381 -0.081153 0.244000
-0.120591 -0.080441 0.244000
-0.120395 -0.079498 0.244000
-0.119487 -0.079551 0.244000
-0.120876 -0.078377 0.244000
-0.120448 -0.077451 0.244000
-0.120192 -0.076369 0.244000
-0.119594 -0.076455 0.244000
-0.118313 -0.076668 0.244000
-0.120306 -0.075458 0.244000
-0.119167 -0.075387 0.244000
-0.120570 -0.073404 0.244000
-0.120591 -0.069336 0.244000
-0.120555 -0.068553 0.244000
-0.120363 -0.067485 0.244000
-0.119423 -0.067571 0.244000
-0.120555 -0.066417 0.244000
-0.119594 -0.066631 0.244000
-0.120733 -0.065634 0.244000
-0.120876 -0.064923 0.244000
-0.123011 -0.019648 0.244000
-0.122584 -0.019220 0.244000
-0.122584 -0.018580 0.244000
-0.122413 -0.017427 0.244000
-0.122584 -0.016444 0.244000
-0.122584 -0.015590 0.244000
-0.122584 -0.014949 0.244000
0.135398 -0.002349 0.244000
0.117672 -0.001281 0.244000
0.118313 -0.001281 0.244000
0.119167 -0.001281 0.244000
0.120021 -0.001281 0.244000
0.128649 -0.001538 0.244000
0.129418 -0.001281 0.244000
0.134543 -0.001566 0.244000
0.135825 -0.001708 0.244000
0.136252 -0.001708 0.244000
0.128564 -0.000854 0.244000
0.129632 -0.000641 0.244000
0.130272 -0.000427 0.244000
0.133476 -0.000854 0.244000
0.136252 -0.000427 0.244000
0.136252 -0.000000 0.244000
-0.119227 -0.092208 0.245000
-0.118798 -0.092208 0.245000
-0.121371 -0.090063 0.245000
-0.120342 -0.090321 0.245000
-0.119441 -0.090492 0.245000
-0.118583 -0.090707 0.245000
-0.117797 -0.090778 0.245000
-0.116439 -0.090921 0.245000
-0.115796 -0.090921 0.245000
-0.121371 -0.089420 0.245000
-0.120728 -0.089420 0.245000
-0.119655 -0.089634 0.245000
-0.121371 -0.088777 0.245000
-0.120728 -0.088562 0.245000
-0.121371 -0.087919 0.245000
-0.120685 -0.087490 0.245000
-0.120599 -0.086375 0.245000
-0.120728 -0.085560 0.245000
-0.120299 -0.084381 0.245000
-0.120227 -0.083487 0.245000
-0.119655 -0.083201 0.245000
-0.120084 -0.082772 0.245000
-0.119655 -0.082772 0.245000
-0.120513 -0.081057 0.245000
-0.119655 -0.081057 0.245000
-0.120513 -0.080628 0.245000
-0.119655 -0.080628 0.245000
-0.119512 -0.079484 0.245000
-0.118798 -0.079770 0.245000
-0.120513 -0.078484 0.245000
-0.119512 -0.078341 0.245000
-0.118798 -0.078269 0.245000
-0.120084 -0.077626 0.245000
-0.119441 -0.077411 0.245000
-0.118583 -0.077626 0.245000
-0.119441 -0.076554 0.245000
-0.120771 -0.072565 0.245000
-0.121371 -0.071407 0.245000
-0.120942 -0.071407 0.245000
-0.121371 -0.070550 0.245000
-0.120728 -0.070550 0.245000
-0.121371 -0.069906 0.245000
-0.120513 -0.069477 0.245000
-0.120084 -0.068620 0.245000
-0.120299 -0.066261 0.245000
-0.120599 -0.065446 0.245000
-0.121371 -0.064545 0.245000
-0.120942 -0.064545 0.245000
-0.121371 -0.063473 0.245000
-0.120942 -0.063473 0.245000
-0.121371 -0.062615 0.245000
-0.121371 -0.037526 0.245000
-0.120799 -0.037598 0.245000
-0.123086 -0.019728 0.245000
-0.122443 -0.019514 0.245000
-0.121800 -0.019514 0.245000
-0.122443 -0.018442 0.245000
-0.121800 -0.018442 0.245000
-0.122229 -0.017369 0.245000
-0.121657 -0.017298 0.245000
-0.122443 -0.016512 0.245000
-0.121800 -0.016512 0.245000
-0.122443 -0.015439 0.245000
-0.121800 -0.015439 0.245000
0.125231 -0.001287 0.245000
0.126089 -0.001287 0.245000
0.127804 -0.001715 0.245000
0.128447 -0.001501 0.245000
0.135524 -0.001430 0.245000
0.136381 -0.001287 0.245000
0.119227 -0.000858 0.245000
0.129519 -0.000858 0.245000
0.133379 -0.000429 0.245000
0.134452 -0.000643 0.245000
0.135309 -0.000429 0.245000
0.132950 -0.000000 0.245000
0.134452 0.000429 0.245000
0.136381 -0.000000 0.245000
-0.120574 -0.090000 0.246000
-0.119426 -0.090144 0.246000
-0.118637 -0.090216 0.246000
-0.117474 -0.090689 0.246000
-0.116484 -0.090861 0.246000
-0.115622 -0.090861 0.246000
-0.120359 -0.089354 0.246000
-0.119498 -0.089354 0.246000
-0.121005 -0.088278 0.246000
-0.120359 -0.088708 0.246000
-0.121005 -0.087847 0.246000
-0.120431 -0.087704 0.246000
-0.120359 -0.086555 0.246000
-0.120431 -0.085407 0.246000
-0.120144 -0.084617 0.246000
-0.120144 -0.083971 0.246000
-0.119713 -0.080096 0.246000
-0.118852 -0.080096 0.246000
-0.120144 -0.079235 0.246000
-0.119426 -0.079378 0.246000
-0.118852 -0.079235 0.246000
-0.119713 -0.078373 0.246000
-0.118852 -0.078589 0.246000
-0.121005 -0.065024 0.246000
-0.120574 -0.065239 0.246000
-0.121149 -0.064306 0.246000
-0.121149 -0.063445 0.246000
-0.120431 -0.063445 0.246000
-0.121177 -0.062526 0.246000
-0.120402 -0.062526 0.246000
-0.121005 -0.061579 0.246000
-0.120574 -0.061579 0.246000
-0.121651 -0.037034 0.246000
-0.121651 -0.036388 0.246000
-0.122297 -0.035742 0.246000
-0.121522 -0.035483 0.246000
-0.122297 -0.018517 0.246000
-0.121866 -0.018732 0.246000
-0.121866 -0.016579 0.246000
-0.122297 -0.015502 0.246000
-0.121759 -0.015395 0.246000
-0.121436 -0.014426 0.246000
0.127464 -0.001292 0.246000
0.128541 -0.001292 0.246000
0.136507 -0.001292 0.246000
0.125527 -0.000861 0.246000
0.126173 -0.000861 0.246000
0.134354 -0.000431 0.246000
0.135431 -0.000646 0.246000
0.136594 -0.000689 0.246000
0.137369 -0.000861 0.246000
0.133924 -0.000000 0.246000
0.134498 0.000144 0.246000
0.135474 0.000431 0.246000
0.136446 0.000431 0.246000
-0.118950 -0.091166 0.248000
-0.117431 -0.091166 0.248000
-0.116562 -0.091166 0.248000
-0.115694 -0.091166 0.248000
-0.113523 -0.091166 0.248000
-0.119601 -0.090298 0.248000
-0.118516 -0.090732 0.248000
-0.117648 -0.090732 0.248000
-0.116779 -0.090732 0.248000
-0.115911 -0.090732 0.248000
-0.114175 -0.090732 0.248000
-0.113523 -0.090732 0.248000
-0.120469 -0.089430 0.248000
-0.119601 -0.089864 0.248000
-0.121121 -0.088561 0.248000
-0.120469 -0.088561 0.248000
-0.119818 -0.088561 0.248000
-0.121121 -0.087259 0.248000
-0.120542 -0.087548 0.248000
-0.121121 -0.086391 0.248000
-0.120686 -0.086825 0.248000
-0.120686 -0.085739 0.248000
-0.122423 -0.032342 0.248000
-0.121989 -0.032776 0.248000
-0.122423 -0.031474 0.248000
-0.121989 -0.031691 0.248000
-0.122568 -0.030678 0.248000
0.120469 -0.000651 0.248000
0.121121 -0.000434 0.248000
0.122640 -0.000434 0.248000
0.123508 -0.000868 0.248000
0.121772 0.000217 0.248000
-0.117686 -0.091098 0.249000
-0.116814 -0.091098 0.249000
-0.115943 -0.091098 0.249000
-0.113327 -0.091098 0.249000
-0.112674 -0.091098 0.249000
-0.119430 -0.090444 0.249000
-0.118558 -0.090444 0.249000
-0.117468 -0.090444 0.249000
-0.116596 -0.090444 0.249000
-0.115507 -0.090662 0.249000
-0.114199 -0.090662 0.249000
-0.113327 -0.090662 0.249000
-0.112310 -0.090517 0.249000
-0.111148 -0.090226 0.249000
-0.110712 -0.090444 0.249000
-0.120301 -0.089572 0.249000
-0.119648 -0.089572 0.249000
-0.118449 -0.089681 0.249000
-0.117468 -0.089790 0.249000
-0.116596 -0.089790 0.249000
-0.115071 -0.089790 0.249000
-0.120301 -0.088265 0.249000
-0.119865 -0.088700 0.249000
-0.120737 -0.087393 0.249000
-0.121173 -0.086739 0.249000
-0.122481 -0.031383 0.249000
-0.122481 -0.030947 0.249000
0.121609 -0.000000 0.249000
0.122917 0.000218 0.249000
0.123352 -0.000000 0.249000
-0.115556 -0.091390 0.251000
-0.114677 -0.091390 0.251000
-0.113798 -0.091390 0.251000
-0.112700 -0.091610 0.251000
-0.119730 -0.090072 0.251000
-0.118412 -0.090072 0.251000
-0.117533 -0.090072 0.251000
-0.116654 -0.090511 0.251000
-0.115493 -0.090574 0.251000
-0.114457 -0.090511 0.251000
-0.113688 -0.090511 0.251000
-0.112480 -0.090511 0.251000
-0.120389 -0.089413 0.251000
-0.119620 -0.089523 0.251000
-0.118631 -0.089633 0.251000
-0.117313 -0.089633 0.251000
-0.116434 -0.089633 0.251000
-0.121268 -0.088314 0.251000
-0.120828 -0.088754 0.251000
-0.121268 -0.087875 0.251000
0.114457 -0.000439 0.251000
0.124783 -0.000439 0.251000
0.125515 -0.000586 0.251000
0.126101 -0.000439 0.251000
0.127639 -0.000439 0.251000
0.122586 0.000439 0.251000
0.123245 0.000879 0.251000
0.124343 0.000439 0.251000
0.128298 -0.000000 0.251000
-0.116016 -0.090431 0.252000
-0.113590 -0.090431 0.252000
-0.120648 -0.089107 0.252000
-0.119545 -0.089549 0.252000
-0.118398 -0.089637 0.252000
-0.117516 -0.089460 0.252000
-0.116457 -0.089475 0.252000
-0.115399 -0.089637 0.252000
-0.114582 -0.089659 0.252000
-0.113590 -0.089990 0.252000
-0.121310 -0.088666 0.252000
-0.116568 -0.088556 0.252000
-0.115575 -0.088666 0.252000
0.122192 -0.000441 0.252000
0.127265 -0.000441 0.252000
0.114399 0.000147 0.252000
0.115354 0.000221 0.252000
0.122486 0.000294 0.252000
0.125574 0.000147 0.252000
0.126309 0.000147 0.252000
0.127485 -0.000000 0.252000
-0.119382 -0.089592 0.254000
-0.118574 -0.089339 0.254333
0.120522 0.002678 0.255000
0.118504 0.003341 0.254500
0.119406 0.003348 0.255000
0.120567 0.003343 0.254625
0.117609 0.004378 0.254333
0.118508 0.004571 0.254750
0.119316 0.004452 0.254333
0.120494 0.004446 0.254000
0.119394 0.005569 0.254500
-0.122367 -0.090426 0.257000
-0.116294 -0.090426 0.257000
-0.115394 -0.090426 0.257000
-0.114269 -0.090426 0.257000
-0.124166 -0.089526 0.257000
-0.123417 -0.089676 0.257000
-0.122592 -0.089976 0.257000
-0.121467 -0.089826 0.257000
-0.117756 -0.089638 0.257000
-0.116519 -0.089976 0.257000
-0.115319 -0.089826 0.257000
-0.114494 -0.089751 0.257000
-0.124616 -0.088626 0.257000
0.118543 0.000450 0.257000
0.119443 -0.000000 0.257000
0.120118 -0.000000 0.257000
0.121467 0.000900 0.257000
0.123267 0.000450 0.257000
0.121557 0.001620 0.257000
0.122592 0.001800 0.257000
0.117868 0.002474 0.257000
0.118768 0.002699 0.257000
0.119518 0.002549 0.257000
0.120342 0.002474 0.257000
0.121467 0.002249 0.257000
0.122592 0.002249 0.257000
0.117868 0.004949 0.257000
0.118318 0.004949 0.257000
0.118768 0.005399 0.257000
0.119368 0.005549 0.257000
0.118768 0.006298 0.257000
0.119218 0.006523 0.257000
0.119218 0.007198 0.257000
-0.124198 -0.089423 0.258000
-0.123445 -0.089573 0.258000
-0.122542 -0.089724 0.258000
-0.121488 -0.089648 0.258000
-0.117649 -0.089874 0.258000
-0.116520 -0.089874 0.258000
-0.115165 -0.089423 0.258000
-0.114714 -0.089423 0.258000
-0.123746 -0.088971 0.258000
0.119230 0.000677 0.258000
0.121789 0.000301 0.258000
0.122617 0.000452 0.258000
0.123295 0.000452 0.258000
0.118553 0.001581 0.258000
0.119381 0.001656 0.258000
0.120434 0.001656 0.258000
0.121187 0.001505 0.258000
0.122843 0.001355 0.258000
0.123295 0.001355 0.258000
0.118778 0.002484 0.258000
0.119456 0.002258 0.258000
0.118628 0.005570 0.258000
0.119230 0.005871 0.258000
0.120133 0.005871 0.258000
0.118778 0.006323 0.258000
0.120284 0.006473 0.258000
-0.118561 -0.090116 0.260000
-0.117651 -0.090116 0.260000
-0.116741 -0.090116 0.260000
-0.116513 -0.089661 0.260000
-0.118332 -0.090005 0.261000
-0.117875 -0.090005 0.261000
-0.116505 -0.090005 0.261000
-0.117418 -0.089549 0.261000
-0.125224 -0.091156 0.263000
-0.124303 -0.091156 0.263000
-0.123843 -0.091156 0.263000
