-248.266418 -15.796074 538.750000
-248.617371 -13.681033 539.000000
-249.089142 -12.265753 539.000000
-248.617386 -5.661117 539.000000
-248.853271 -4.009958 539.000000
-248.617371 -1.415279 539.000000
-248.620605 0.628430 538.666687
-248.145630 2.830559 539.000000
-246.420212 4.086251 538.666687
-246.887604 5.975624 539.000000
-246.737335 8.718803 538.500000
-247.685242 11.772113 538.000000
-246.730347 11.322234 539.000000
-248.145630 14.152792 539.000000
-246.730347 13.681033 539.000000
-250.504425 16.983351 539.000000
-248.501862 16.032393 538.750000
-247.202118 16.039831 539.000000
-250.706619 18.735605 539.000000
-249.089157 18.870392 539.000000
-250.032684 23.587988 539.000000
-249.089157 23.587988 539.000000
-249.089142 25.475027 539.000000
-248.145630 29.249104 539.000000
-248.145630 31.136145 539.000000
-247.202103 32.079662 539.000000
-247.685242 33.903687 538.000000
-246.966217 33.730820 539.000000
-247.685242 36.258102 538.000000
-246.615692 36.308434 538.750000
-248.306686 39.289391 538.666687
-246.743469 39.083412 538.000000
-248.934525 41.489185 538.666687
-246.730347 42.458374 539.000000
-248.774643 44.030910 539.000000
-248.145630 45.760696 539.000000
-249.089142 54.724133 539.000000
-248.807648 56.212757 538.799988
-247.202103 55.667648 539.000000
-250.032669 58.026451 539.000000
-248.753311 58.617241 538.857178
-248.150879 61.035995 538.500000
-248.265976 66.015732 538.750000
-247.202118 66.046371 539.000000
-247.202103 67.933403 539.000000
-248.460129 76.739586 539.000000
-248.145630 78.312119 539.000000
-247.685242 88.526291 538.000000
-247.685242 90.880714 538.000000
-246.972778 90.964737 538.500000
-246.743469 93.235138 538.000000
-248.145630 101.900108 539.000000
-248.627014 109.245201 538.000000
-250.032669 112.278816 539.000000
-249.209061 111.283661 538.750000
-250.347168 113.851364 539.000000
-249.089142 113.694099 539.000000
-250.349228 115.980835 538.666687
-249.089157 116.052902 539.000000
-248.622192 119.008614 538.500000
-250.032669 121.714012 539.000000
-249.089142 121.714012 539.000000
-250.032669 123.129288 539.000000
-249.089142 122.657532 539.000000
-250.351257 149.205627 538.333374
-250.271606 150.351318 538.500000
-248.934509 151.341232 538.666687
-250.319382 153.811188 538.400024
-249.328949 152.708374 538.500000
-250.872314 161.275101 538.777771
-251.528473 164.019516 538.500000
-250.639862 166.015427 538.857178
-249.089142 167.002945 539.000000
-250.510544 168.105759 538.000000
-249.408905 168.052658 538.333374
-249.089142 174.551117 539.000000
-249.249023 176.329636 538.666687
-250.271606 179.573303 538.500000
-249.328949 178.866547 538.500000
-249.089142 180.212234 539.000000
-247.874313 -18.010019 541.500000
-248.340820 -16.366301 542.000000
-248.578018 -13.757179 542.000000
-248.865799 -11.571156 541.799988
-247.970612 -8.670811 540.333374
-246.603806 -8.334481 541.000000
-248.484360 -6.383198 540.250000
-246.698853 -6.155633 541.000000
-248.184158 -3.518255 541.142883
-246.844452 -4.424681 541.666687
-248.119385 -1.420531 541.000000
-246.552704 -1.261527 540.333374
-248.470352 0.711578 541.250000
-247.172363 -0.000000 541.000000
-246.540436 6.313470 541.000000
-247.172363 8.049675 541.000000
-248.606033 17.014862 540.000000
-248.503448 18.926758 540.600037
-250.811676 21.111031 540.000000
-248.706238 21.317808 541.250000
-248.822205 23.697393 541.500000
-250.013412 26.516575 541.000000
-248.871048 26.346426 541.400024
-248.434479 28.410032 541.000000
-247.660751 30.721277 540.000000
-246.511719 30.860617 540.799988
-246.715485 34.974991 540.000000
-247.650253 41.011883 540.666687
-246.715485 41.591881 540.000000
-248.282196 43.851776 540.666687
-246.943924 43.996193 540.500000
-247.660751 45.845596 540.000000
-248.606033 54.825665 540.000000
-247.660751 56.716202 540.000000
-246.715485 56.716202 540.000000
-247.955994 58.436363 541.333374
-246.715485 57.661476 540.000000
-248.119385 76.708664 541.000000
-247.172363 76.708664 541.000000
-250.013412 79.549728 541.000000
-247.979095 78.779762 541.285767
-246.680466 77.799225 542.000000
-248.424545 80.595940 541.666687
-249.066391 104.172256 541.000000
-248.822205 106.163742 541.500000
-248.669037 108.940331 541.166687
-248.411377 111.435081 540.400024
-248.773361 113.957901 541.600037
-248.912949 116.412346 540.666687
-249.296570 118.961349 541.500000
-248.596710 121.775291 540.666687
-248.835342 123.471527 540.500000
-248.434189 151.049210 541.000000
-247.172363 151.996796 541.000000
-248.591721 153.890854 541.000000
-249.551300 155.024292 540.000000
-250.254990 159.425049 540.500000
-250.013412 161.467010 541.000000
-249.526764 162.239853 542.000000
-250.206665 163.902466 540.600037
-249.296570 163.512451 541.500000
-250.244476 166.355270 541.500000
-249.526764 166.034912 542.000000
-249.228027 168.465210 540.666687
-249.228027 176.352386 540.666687
-248.606049 178.656052 540.000000
-248.606033 181.019226 540.000000
-248.086105 -19.010429 543.000000
-246.969894 -18.387836 543.333374
-247.838409 -15.698047 543.500000
-247.135590 -17.109386 543.000000
-248.086105 -13.782562 543.000000
-247.979324 -11.609317 543.600037
-247.135590 -10.455736 543.000000
-246.487335 -8.565781 543.666687
-245.868225 -6.019970 543.000000
-246.411316 -4.043655 543.500000
-244.733932 -4.761361 544.000000
-246.660324 -1.901043 543.000000
-248.086105 0.950521 543.000000
-247.135590 -0.000000 543.000000
-248.086105 23.763039 543.000000
-248.086105 26.139343 543.000000
-248.552200 28.541466 543.500000
-247.590729 31.424976 544.000000
-248.561371 59.882858 543.000000
-248.561371 61.308636 543.000000
-246.486740 79.941841 543.666687
-246.638458 80.943130 544.000000
-248.561371 101.705803 543.000000
-249.036621 104.557365 543.000000
-248.543015 106.178345 544.000000
-248.390717 108.491913 543.666687
-248.086105 111.211014 543.000000
-248.086105 113.587311 543.000000
-248.719788 115.963623 543.000000
-249.495285 118.081741 544.000000
-249.265961 121.302650 543.500000
-249.036621 163.964966 543.000000
-249.388931 166.417847 543.250000
-249.036621 168.242310 543.000000
-248.363876 -20.352482 545.000000
-246.924377 -20.364735 545.333374
-246.250717 -18.612192 545.250000
-247.545212 -15.292369 546.000000
-246.300385 -16.355360 545.625000
-247.878998 -13.682493 545.333374
-246.252777 -13.716334 546.666687
-247.545212 -11.947163 546.000000
-246.122833 -11.324485 545.571472
-244.677902 -11.469276 546.000000
-246.137817 -9.540226 545.000000
-246.438324 -3.502751 545.666687
-248.500992 0.955773 546.000000
-247.091843 -0.000000 545.000000
-247.920715 28.633806 545.250000
-246.362762 29.123945 545.500000
-247.795532 31.988640 545.500000
-246.840637 31.988640 545.500000
-248.218124 34.013268 545.799988
-247.041061 33.034561 547.000000
-248.500992 35.841488 546.000000
-249.594467 38.620117 547.000000
-248.045868 79.183876 545.000000
-246.840637 79.256516 545.500000
-248.956116 102.455017 547.000000
-249.381500 103.797661 545.000000
-248.804413 106.219772 546.666687
-248.652695 109.024063 546.333374
-248.022247 111.347557 546.000000
-247.936279 113.462158 545.600037
-247.091843 114.482704 545.000000
-248.196991 116.302643 545.333374
-249.061447 118.798271 545.833374
-249.570099 120.721924 546.250000
-251.828674 177.141861 547.000000
-248.198151 -14.402239 548.500000
-246.832764 -2.881323 548.666687
-248.424850 -0.961025 549.000000
-250.827408 1.922049 549.000000
-248.792023 1.441099 548.750000
-247.492691 -0.000000 548.000000
-249.546051 3.203415 549.000000
-248.198151 6.241408 548.500000
-248.835678 8.825320 548.000000
-248.602509 11.518291 548.333313
-246.214508 11.916705 549.000000
-248.734131 13.818448 548.200012
-246.277878 14.082481 548.500000
-248.311493 15.849904 548.750000
-245.966263 16.333477 548.875000
-247.944336 34.596882 549.000000
-249.385864 37.479958 549.000000
-249.225708 39.081665 549.000000
-250.827408 40.363033 549.000000
-249.289780 41.131855 549.000000
-248.905365 51.414814 549.000000
-248.905365 53.336864 549.000000
-248.798355 61.569244 548.500000
-250.370499 101.683044 548.000000
-249.411240 101.683044 548.000000
-249.242615 103.984375 548.333374
-248.551758 106.624718 548.750000
-247.492691 107.438690 548.000000
-248.311493 109.026398 548.750000
-248.113556 111.411743 548.666687
-247.492691 110.316505 548.000000
-247.944336 113.881409 549.000000
-248.603119 119.022331 548.333374
-249.385864 121.569611 549.000000
-250.827423 123.972168 549.000000
-249.866379 123.972168 549.000000
-252.038757 171.386200 548.500000
-253.644470 174.175003 548.857178
-252.038757 172.826874 548.500000
-253.518265 176.251907 549.000000
-251.329773 177.465698 548.000000
-252.749466 186.919281 549.000000
-251.788437 186.919281 549.000000
-251.955322 188.566803 548.666687
-248.395966 -1.925550 550.000000
-247.063828 -1.444600 550.250000
-248.395966 1.925550 550.000000
-246.818192 0.963942 550.777771
-251.284271 2.888325 550.000000
-248.524536 3.990640 550.285767
-246.491409 3.979981 551.125000
-244.467819 4.831380 552.000000
-248.054047 6.105161 550.666687
-246.745819 6.112163 551.333374
-248.139526 8.672853 550.500000
-247.217285 8.690649 551.666687
-246.470428 10.590526 550.000000
-246.470413 16.367176 550.000000
-247.883072 31.829342 551.000000
-247.883087 33.758392 551.000000
-247.217285 33.798656 551.666687
-248.696777 36.148125 550.666687
-246.722473 36.074306 552.000000
-244.467819 35.752213 552.000000
-248.139526 38.546013 550.500000
-247.366653 37.684761 552.000000
-248.676056 40.856091 551.333374
-248.395966 51.989853 550.000000
-248.636658 54.156097 550.000000
-248.773331 56.232563 551.142883
-250.321503 59.210667 550.000000
-248.846786 58.835667 551.000000
-248.054047 61.049858 550.666687
-248.139526 64.082741 550.500000
-247.433182 62.580376 550.000000
-248.383347 66.094337 550.400024
-250.587570 68.283501 552.000000
-249.299210 68.122452 552.000000
-250.265472 73.436974 552.000000
-248.944733 76.542366 551.750000
-248.997559 78.495346 551.333374
-250.606247 98.762047 551.333374
-249.319641 99.084137 551.333374
-250.802887 100.609993 550.000000
-249.319061 101.175102 551.333374
-247.366653 100.492699 552.000000
-249.328979 104.650146 551.000000
-248.703171 105.759087 551.750000
-247.044556 105.968262 552.000000
-247.883072 109.955910 551.000000
-247.433182 108.793579 550.000000
-247.883072 111.884956 551.000000
-247.433182 110.719131 550.000000
-247.883072 113.331749 551.000000
-248.998138 118.707825 551.333374
-248.847595 120.565689 551.000000
-249.812119 124.423798 551.000000
-249.812119 126.352844 551.000000
-249.299210 137.211182 552.000000
-249.299210 139.143753 552.000000
-249.299210 141.076294 552.000000
-249.316467 143.963867 551.428589
-248.590256 146.258209 551.500000
-251.427246 171.581100 550.666687
-251.266785 173.830200 550.666687
-249.812119 174.096863 551.000000
-251.632645 176.227234 550.500000
-249.812119 175.543640 551.000000
-252.705688 179.401749 551.000000
-251.512726 178.757568 550.500000
-252.934998 181.013092 551.500000
-251.969604 181.013092 551.500000
-252.858566 183.370148 551.333374
-251.486755 183.425873 551.500000
-251.372681 186.720154 551.250000
-250.968857 188.661560 551.000000
-249.470184 188.632141 551.666687
-250.521057 190.183960 551.500000
-247.293152 -0.969777 554.000000
-245.851898 0.322675 553.666687
-244.910706 0.968026 553.000000
-246.362732 6.292172 553.000000
-244.910706 5.808159 553.000000
-247.144348 8.723326 553.666687
-248.460144 30.815510 553.000000
-246.362732 34.848953 553.000000
-244.910706 34.848953 553.000000
-246.524078 36.462334 553.000000
-244.910706 36.785007 553.000000
-248.038849 39.240959 553.500000
-249.232712 41.700417 554.000000
-250.202484 43.639965 554.000000
-249.007324 44.327034 553.500000
-248.782806 47.433296 553.000000
-248.782806 48.885338 553.000000
-250.202484 51.398186 554.000000
-249.007751 50.867783 553.500000
-248.522858 53.774048 553.500000
-247.814789 56.145538 553.000000
-247.814774 58.565601 553.000000
-247.964157 61.022430 553.333374
-248.038849 63.463501 553.500000
-248.262924 66.429733 554.000000
-251.202866 69.697906 553.000000
-248.845856 68.792023 553.500000
-250.460663 71.214279 553.500000
-249.232712 71.278610 554.000000
-250.460663 72.667633 553.500000
-249.249329 73.393654 553.500000
-248.782806 76.474091 553.000000
-248.932190 79.102768 553.333374
-248.782806 80.346199 553.000000
-248.298798 99.706726 553.000000
-246.846756 99.706726 553.000000
-248.782822 101.642784 553.000000
-250.718857 103.578835 553.000000
-248.534821 103.610062 553.166687
-247.814774 112.291069 553.000000
-248.262924 113.948807 554.000000
-250.202484 116.373238 554.000000
-249.007751 115.784195 553.500000
-249.232712 120.252357 554.000000
-247.293152 128.980347 554.000000
-247.293152 131.404785 554.000000
-249.232712 134.799011 554.000000
-249.362244 138.615540 553.750000
-248.962402 141.433762 553.400024
-247.293152 141.587448 554.000000
-248.291626 143.512985 553.200012
-246.548828 143.512985 553.200012
-244.910706 144.235931 553.000000
-247.964157 146.260681 553.333374
-246.815964 146.189499 553.799988
-248.609528 148.520020 553.333374
-249.232712 153.224777 554.000000
-251.041534 170.695343 553.000000
-249.750839 170.856674 553.000000
-250.202484 173.590088 554.000000
-250.460663 177.309021 553.500000
-249.491776 176.340988 553.500000
-251.093491 178.633286 553.400024
-249.232712 178.438980 554.000000
-251.481400 180.958298 553.400024
-250.718857 183.441025 553.000000
-253.596695 186.197205 554.000000
-250.945557 186.028259 553.500000
-250.718857 187.797150 553.000000
-248.782806 189.733185 553.000000
-248.144745 -2.925086 557.000000
-248.185898 -1.946556 556.000000
-246.888184 -1.297704 556.000000
-247.809967 31.645538 556.250000
-246.682205 31.688425 557.000000
-247.698380 33.578094 556.000000
-246.239334 33.578094 556.000000
-247.830536 39.157810 555.750000
-246.428894 38.683300 556.428589
-248.290207 41.446941 555.799988
-250.654099 42.747211 555.000000
-248.428131 43.554409 556.000000
-248.185013 45.987389 556.000000
-248.184738 48.663902 556.000000
-248.437744 51.438446 555.750000
-248.185898 53.530296 556.000000
-248.037109 56.415703 555.666687
-247.698380 58.883324 556.000000
-248.185898 61.316521 556.000000
-247.809967 63.778587 556.250000
-248.171600 66.222878 556.333374
-248.185013 68.858551 556.000000
-247.212616 69.102745 556.000000
-248.118942 71.186707 556.125000
-246.682205 71.177078 557.000000
-248.907990 73.828506 556.166687
-249.307373 76.611221 556.333374
-248.396317 78.779160 555.600037
-249.159180 80.782082 556.000000
-248.895721 92.057053 556.500000
-248.843018 93.730171 556.600037
-250.654099 96.181229 555.000000
-248.258347 95.873840 556.600037
-251.139862 98.124283 555.000000
-248.567490 98.388611 555.888916
-247.962708 101.616531 555.500000
-248.560059 104.093056 555.750000
-247.739517 105.896500 555.000000
-245.796478 106.868027 555.000000
-250.582336 108.715675 557.000000
-249.607300 108.715675 557.000000
-249.159180 116.307602 556.000000
-250.619080 117.766640 556.000000
-249.547775 118.933891 556.000000
-249.383240 121.281647 556.500000
-248.632263 124.803650 557.000000
-248.185898 126.526146 556.000000
-247.739517 128.241623 555.000000
-247.739517 130.184677 555.000000
-246.725983 134.312378 556.000000
-248.805099 136.016113 556.142883
-246.682205 135.528961 557.000000
-249.383240 138.817291 556.500000
-248.536591 140.631683 555.333374
-250.619080 151.831360 556.000000
-249.626114 150.993744 556.500000
-253.052292 154.751205 556.000000
-250.834747 153.611984 555.400024
-249.248093 154.027206 556.200012
-253.052292 156.211136 556.000000
-251.300369 156.308456 556.000000
-248.651520 155.864319 556.500000
-253.052292 158.157684 556.000000
-251.319275 158.464279 555.857178
-249.092438 158.801422 556.125000
-251.069839 161.854736 557.000000
-248.895721 160.735291 556.500000
-249.358734 171.636536 555.000000
-250.992371 173.652222 555.750000
-249.159180 173.243484 556.000000
-250.488235 176.485840 556.250000
-249.607300 177.455185 557.000000
-249.184265 178.867844 555.333374
-251.105728 180.056442 556.000000
-249.159180 180.056442 556.000000
-252.532394 183.305374 557.000000
-253.052292 186.869385 556.000000
-250.844894 188.985733 556.500000
-248.101883 -5.860675 558.000000
-250.055435 -3.907116 558.000000
-248.590271 -4.395506 558.000000
-247.125107 -2.930337 558.000000
-248.546509 8.806766 559.000000
-248.101883 41.024723 558.000000
-247.125107 41.513111 558.000000
-248.101883 43.955059 558.000000
-247.125107 43.955059 558.000000
-247.745956 46.615234 558.666687
-247.125107 48.838955 558.000000
-247.567978 50.883533 559.000000
-246.589447 50.883533 559.000000
-248.101883 61.048695 558.000000
-247.834930 63.059143 558.500000
-246.636719 64.467415 558.000000
-247.834930 65.502838 558.500000
-247.125107 66.420982 558.000000
-247.125107 71.304871 558.000000
-247.125107 73.258430 558.000000
-250.503571 75.836044 559.000000
-249.525040 75.836044 559.000000
-248.546509 79.260895 559.000000
-248.101883 91.817238 558.000000
-247.968399 93.568176 558.250000
-246.589447 92.960312 559.000000
-249.525040 109.106049 559.000000
-249.525040 116.934280 559.000000
-249.035767 118.891342 559.000000
-248.945633 120.930237 558.250000
-249.078659 123.074165 558.000000
-248.101883 136.749069 558.000000
-247.125107 136.749069 558.000000
-248.649506 138.500732 558.500000
-246.589447 137.972672 559.000000
-249.525040 140.908249 559.000000
-248.101883 157.261429 558.000000
-248.101883 158.238220 558.000000
-250.055435 162.145325 558.000000
-248.546509 160.478851 559.000000
-250.055435 174.843445 558.000000
-250.279510 176.466156 558.500000
-251.745544 181.843719 558.500000
-252.460632 183.474304 559.000000
-252.985779 187.541595 558.000000
-252.460632 187.877686 559.000000
-248.183258 -5.897435 561.500000
-247.978180 -4.580475 560.666687
-247.251129 -3.434481 560.500000
-248.010849 -1.960560 560.000000
-247.030579 -1.960560 560.000000
-248.500992 6.861960 560.000000
-247.030579 6.861960 560.000000
-248.402954 8.822520 560.000000
-246.989944 9.031879 560.799988
-248.944748 11.294227 561.000000
-246.979797 10.802336 561.000000
-250.864151 13.281043 562.000000
-249.880371 13.281043 562.000000
-248.453735 27.004965 561.000000
-246.850266 27.137419 560.333374
-248.485229 29.099148 560.333374
-246.773239 29.078955 561.200012
-248.991135 30.388683 560.000000
-246.814209 41.397579 560.400024
-246.869965 43.681099 560.750000
-247.225754 45.909927 561.000000
-247.030579 48.033722 560.000000
-248.010849 51.954838 560.000000
-246.540436 51.954838 560.000000
-248.416962 53.802376 560.285767
-246.963470 53.715847 561.333374
-248.738327 56.191750 561.200012
-248.187302 58.466003 560.400024
-247.251129 59.359459 560.500000
-248.010849 61.267502 560.000000
-247.471695 61.376907 561.000000
-248.010849 62.737919 560.000000
-246.176071 63.750214 560.285767
-246.489670 65.796043 561.000000
-248.943878 74.634315 561.000000
-248.599030 76.265785 560.000000
-248.991135 78.422401 560.000000
-248.991135 80.382965 560.000000
-248.010849 92.146332 560.000000
-247.030579 92.146332 560.000000
-248.010849 94.106880 560.000000
-247.030579 94.106880 560.000000
-248.010849 96.067444 560.000000
-246.785507 96.312515 560.000000
-248.010849 98.028008 560.000000
-246.540436 98.028008 560.000000
-248.500992 108.811089 560.000000
-250.951675 111.261780 560.000000
-249.286957 111.394241 560.666687
-250.951675 112.732201 560.000000
-249.336151 113.869835 560.777771
-248.883652 116.106461 560.200012
-248.255920 118.368820 560.000000
-247.471695 119.316711 561.000000
-248.632874 121.372681 560.666687
-247.030579 120.574448 560.000000
-248.991135 123.515289 560.000000
-248.991135 126.456116 560.000000
-248.896606 139.696899 562.000000
-248.967514 141.040421 560.500000
-249.941071 151.469604 560.666687
-250.417770 153.687775 561.000000
-249.880371 155.437408 562.000000
-248.010849 158.805374 560.000000
-248.935455 161.109726 561.200012
-250.417770 163.999100 561.000000
-249.703583 162.871765 560.500000
-250.864151 176.096802 562.000000
-249.971405 176.940552 560.000000
-249.971405 178.901093 560.000000
-251.881546 183.901245 561.200012
-252.912262 186.253220 560.000000
-252.023407 186.256714 560.750000
-252.912247 189.194046 560.000000
-251.562607 188.712936 561.000000
-247.807800 -8.885538 564.000000
-246.820526 -8.885538 564.000000
-247.989853 -6.577796 563.666687
-246.820511 -6.417334 564.000000
-247.807800 -4.442769 564.000000
-246.820511 -4.442769 564.000000
-247.807800 -1.974564 564.000000
-247.368423 6.898721 563.000000
-246.857285 8.217432 563.333374
-248.353958 11.826379 563.000000
-247.094467 11.836882 563.500000
-250.325027 14.782973 563.000000
-248.642136 13.806850 563.375000
-247.094467 13.809696 563.500000
-250.325027 15.768506 563.000000
-248.931183 16.036331 563.750000
-250.769638 18.264717 564.000000
-249.387436 18.955816 564.000000
-249.288712 20.732922 564.000000
-249.050354 24.016571 563.833374
-248.500412 25.638992 563.333374
-247.368423 26.609354 563.000000
-248.318939 31.245846 563.666687
-247.368423 30.551479 563.000000
-246.326874 42.453129 564.000000
-246.820511 43.934052 564.000000
-246.838608 46.374542 563.666687
-247.368423 48.291046 563.000000
-248.026276 56.432270 563.600037
-247.185791 58.838394 563.333374
-244.845963 59.236923 564.000000
-247.231445 60.883270 563.250000
-248.795074 71.577942 564.000000
-248.501007 73.958633 563.333374
-248.574524 76.446960 563.500000
-249.424820 78.701172 563.750000
-250.325027 110.379539 563.000000
-248.509033 110.931297 563.799988
-248.400177 113.339981 564.000000
-248.648041 116.431015 563.666687
-248.353958 118.263786 563.000000
-249.067291 123.794052 563.500000
-249.121735 126.435120 563.400024
-249.339493 128.119095 563.000000
-249.288712 141.674973 564.000000
-249.288712 152.041443 564.000000
-250.325043 153.742920 563.000000
-249.782349 153.522354 564.000000
-249.288696 155.990570 564.000000
-249.177994 158.388321 563.750000
-250.325027 164.583771 563.000000
-249.782349 164.876099 564.000000
-250.325027 176.902924 563.000000
-250.547333 179.033264 563.500000
-248.918488 178.821442 564.000000
-251.130249 181.444580 563.333374
-249.782349 180.672607 564.000000
-251.533752 183.965317 563.500000
-251.936676 186.485458 563.666687
-250.986359 188.239349 563.600037
-250.325027 190.207596 563.000000
-245.998123 -6.541619 566.200012
-247.971466 -2.969723 565.500000
-246.565811 -4.212141 566.250000
-248.832428 -0.991367 566.333374
-247.199493 -1.981566 566.000000
-250.118439 4.962668 567.000000
-249.125916 4.962668 567.000000
-248.832428 5.948199 566.333374
-247.199493 6.935481 566.000000
-246.922913 8.429533 566.500000
-246.651886 13.859000 565.500000
-248.218719 16.580736 565.500000
-248.334671 18.402308 565.200012
-247.100586 19.022684 566.000000
-250.225250 21.758715 565.000000
-248.399811 21.393560 565.799988
-247.140839 20.843204 567.000000
-248.576828 23.077427 565.000000
-247.258148 23.736782 565.000000
-247.258148 25.714844 565.000000
-248.726807 33.708942 566.375000
-248.832428 36.184875 566.333374
-248.716553 38.548012 566.714294
-246.148315 37.716270 567.000000
-248.318344 41.000214 566.666687
-246.148315 41.190140 567.000000
-246.374130 44.254974 566.000000
-246.269104 46.484531 565.000000
-247.914566 56.029129 566.500000
-247.061188 56.746399 566.250000
-246.378067 58.625996 565.250000
-246.763626 61.320019 565.000000
-250.446686 68.798157 565.500000
-249.291336 68.889618 566.250000
-250.668106 70.345596 566.000000
-249.016815 71.336380 566.000000
-248.247162 73.682922 565.000000
-248.201645 76.461838 565.799988
-248.575821 78.732239 565.750000
-250.171844 81.740479 566.000000
-249.291336 80.784706 566.250000
-249.125916 84.365349 567.000000
-248.553146 86.487648 566.600037
-246.644577 86.846680 567.000000
-247.971466 88.596748 565.500000
-246.922913 88.753845 566.500000
-247.971481 91.071518 565.500000
-246.892700 91.064949 567.000000
-249.677322 122.857094 566.000000
-249.236191 125.607132 565.000000
-251.163498 129.792572 566.000000
-249.401611 128.419312 566.500000
-250.515457 131.212921 567.000000
-249.071640 141.371262 565.750000
-250.632507 144.494446 566.666687
-249.309723 143.501923 566.666687
-251.110977 146.150543 567.000000
-250.614716 149.376282 567.000000
-249.125916 149.376282 567.000000
-250.599487 150.834991 565.400024
-249.677322 151.589798 566.000000
-249.071213 153.998474 565.750000
-249.125916 156.820297 567.000000
-248.629639 159.053497 567.000000
-246.519409 159.279755 566.333374
-249.162689 161.262207 566.333374
-246.209579 160.506866 566.000000
-250.225250 164.179398 565.000000
-248.961365 163.829285 565.500000
-250.225250 166.651978 565.000000
-249.016342 166.077316 565.400024
-249.125916 167.738159 567.000000
-250.225250 177.036819 565.000000
-249.677322 177.350143 566.000000
-248.686539 178.340942 566.000000
-250.719757 181.981979 565.000000
-248.934235 181.560974 566.000000
-250.815155 183.898483 566.333374
-248.877777 183.370560 567.000000
-251.617584 186.331635 566.799988
-250.467087 188.470215 566.666687
-250.668106 190.230347 566.000000
-246.582443 -3.479994 568.000000
-247.576736 -0.994284 568.000000
-247.016571 -1.992069 569.000000
-250.531143 1.244606 568.500000
-249.286987 0.497580 568.500000
-248.546860 3.780380 568.400024
-247.576736 5.965704 568.000000
-248.073883 9.942841 568.000000
-248.571030 10.937124 568.000000
-247.576736 16.405687 568.000000
-247.016571 16.932589 569.000000
-246.301498 18.908026 568.500000
-247.576736 21.874249 568.000000
-247.576752 23.862820 568.000000
-248.012604 25.896898 569.000000
-248.291809 31.845098 568.500000
-247.722031 33.825497 568.333374
-247.016571 33.865173 569.000000
-247.576736 36.291367 568.000000
-246.582443 36.291367 568.000000
-247.794678 39.308353 568.500000
-246.085312 39.274220 568.000000
-247.576736 40.765648 568.000000
-246.582443 40.765648 568.000000
-246.582443 43.748497 568.000000
-248.510620 54.781902 569.000000
-247.016571 54.781902 569.000000
-246.395142 56.044014 568.333374
-250.559601 67.611320 568.000000
-248.898804 68.696625 568.750000
-249.048325 70.967026 568.333374
-248.540833 73.393219 568.500000
-248.571030 75.565582 568.000000
-248.291809 78.616707 568.500000
-248.789825 81.105927 568.500000
-248.820602 83.603882 568.571472
-248.291809 85.583694 568.500000
-246.085312 88.988419 568.000000
-246.582443 91.474129 568.000000
-250.004684 123.508286 569.000000
-250.004684 125.500351 569.000000
-249.565308 126.771217 568.000000
-249.194199 129.076630 568.666687
-249.286972 130.863449 568.500000
-248.571030 142.182617 568.000000
-248.384888 143.924362 568.333374
-250.502686 147.413101 569.000000
-249.286987 145.790833 568.500000
-250.502686 148.409149 569.000000
-250.004684 153.389313 569.000000
-249.286972 155.742004 568.500000
-248.571030 158.422607 568.000000
-248.073883 162.068314 568.000000
-246.582443 162.068314 568.000000
-248.372177 163.460312 568.000000
-248.073883 165.051163 568.000000
-248.073883 184.439697 568.000000
-250.559601 186.428284 568.000000
-248.862183 186.647079 568.666687
-248.979904 188.866470 568.285767
-246.885284 -3.996392 571.000000
-247.884811 -0.999536 571.000000
-248.473511 1.141826 570.714294
-250.883408 3.998142 571.000000
-248.819595 11.514790 572.000000
-247.317673 12.015433 572.000000
-247.884811 13.993497 571.000000
-247.317673 13.517363 572.000000
-247.134720 15.992131 571.000000
-246.316391 18.023149 572.000000
-247.384186 21.490013 571.000000
-248.101883 23.510090 571.500000
-247.317673 23.029579 572.000000
-249.029083 27.003216 571.333374
-248.946381 28.707951 571.142883
-248.947357 30.931337 570.000000
-247.450699 31.430229 570.000000
-246.885269 33.984207 571.000000
-248.448471 53.381500 570.000000
-247.276077 53.951721 570.750000
-248.384583 66.968872 571.000000
-248.332947 68.741264 570.500000
-248.260590 71.549942 570.333374
-247.057541 71.016739 571.400024
-248.275620 73.933243 570.750000
-247.317673 73.594528 572.000000
-248.383713 75.963821 571.000000
-248.884354 79.463074 571.000000
-248.384155 81.461708 571.000000
-246.885269 81.961914 571.000000
-248.072693 83.246201 570.666687
-246.918533 84.136467 570.500000
-247.884811 85.960052 571.000000
-246.885269 85.960052 571.000000
-252.882477 101.952621 571.000000
-251.029297 102.012146 571.333374
-253.511520 103.405540 571.666687
-251.117767 103.871613 571.250000
-250.546295 106.262016 571.600037
-250.321533 114.146614 572.000000
-248.841187 113.413147 571.666687
-250.883408 116.945656 571.000000
-250.570786 118.786491 571.200012
-249.883881 119.944260 571.000000
-250.663727 121.336792 570.500000
-249.545700 121.270805 571.600037
-250.444061 123.725342 570.000000
-249.395859 123.698746 570.799988
-249.283478 126.140686 571.000000
-248.709305 128.649857 570.600037
-248.370758 131.184570 571.200012
-250.444061 133.204285 570.000000
-248.926361 133.116180 570.333374
-249.320236 135.173615 572.000000
-248.666412 143.307312 570.500000
-248.695892 146.684326 571.333374
-250.321533 148.190338 572.000000
-249.320236 148.190338 572.000000
-250.382797 151.929398 571.000000
-250.444061 152.661102 570.000000
-249.883881 154.927994 571.000000
-250.321533 157.201920 572.000000
-249.446259 157.650040 570.000000
-246.747009 -5.015183 573.000000
-247.750031 -4.012146 573.000000
-246.555634 -3.345206 573.333374
-247.750031 -1.504555 573.000000
-246.747009 -1.504555 573.000000
-248.038300 1.004787 573.666687
-246.747009 0.501518 573.000000
-253.488174 3.513691 573.500000
-250.759155 4.012146 573.000000
-248.725418 3.613382 573.400024
-247.177612 3.014361 574.000000
-248.897766 6.022304 573.333374
-248.084396 10.364712 573.000000
-246.747009 12.036439 573.000000
-246.747009 13.039475 573.000000
-247.177612 15.071805 574.000000
-247.177612 22.105314 574.000000
-247.750031 24.072878 573.000000
-247.177612 23.612495 574.000000
-248.237717 25.887449 573.200012
-247.177612 27.129251 574.000000
-247.966217 28.611923 573.500000
-247.177612 28.636431 574.000000
-247.750031 68.708008 573.000000
-246.747009 72.218636 573.000000
-246.699158 73.976715 573.666687
-248.108887 76.515228 573.250000
-248.753067 78.738373 573.000000
-248.467743 80.815338 573.500000
-250.191986 101.483490 574.000000
-249.220886 101.645409 573.500000
-249.254593 103.814285 573.000000
-249.354904 106.121269 573.000000
-249.471649 108.422043 573.500000
-250.475571 111.935730 573.500000
-248.969681 111.935730 573.500000
-248.084381 114.011826 573.000000
-250.810226 116.286011 573.500000
-248.468170 115.952255 573.500000
-250.191986 117.560081 574.000000
-249.566467 119.096436 573.333374
-248.524811 121.251183 573.400024
-248.467743 123.480713 573.500000
-248.524811 126.269875 573.400024
-248.216980 128.500275 573.500000
-247.750046 131.397797 573.000000
-248.467728 134.022217 573.500000
-250.191986 136.651031 574.000000
-249.187180 136.148636 574.000000
-251.196777 138.995544 574.000000
-251.447968 141.423782 574.000000
-250.694382 142.679764 574.000000
-248.970123 144.060913 573.500000
-248.418732 145.774643 573.000000
-250.759155 149.452454 573.000000
-249.756119 149.452454 573.000000
-250.694382 150.718048 574.000000
-250.759155 153.966095 573.000000
-246.098419 -5.032688 575.000000
-245.930664 -3.690637 575.000000
-244.588623 -3.019613 575.000000
-246.409149 -1.678146 575.333374
-247.608231 2.013075 575.000000
-246.526123 1.007996 576.000000
-247.608231 4.026150 575.000000
-246.551514 3.358626 575.666687
-248.255051 6.043018 575.333374
-246.004517 6.042227 575.285767
-244.058807 6.713751 575.333374
-250.055435 9.074592 576.000000
-249.262466 8.325815 576.500000
-245.991135 8.475921 576.400024
-244.217529 8.578325 576.500000
-247.608231 11.071912 575.000000
-246.226120 10.805338 576.142883
-246.601700 13.084988 575.000000
-247.459457 15.150578 577.000000
-247.608231 21.137287 575.000000
-246.137817 21.771318 575.799988
-246.311981 23.674198 575.500000
-247.608231 25.666706 575.000000
-246.541489 26.206736 575.799988
-246.740005 28.761152 576.500000
-245.930664 73.812759 575.000000
-247.823547 76.060097 575.500000
-246.601700 75.490311 575.000000
-248.542145 78.898102 576.000000
-249.479538 102.013893 577.000000
-248.398605 103.793564 575.666687
-248.219177 106.235649 575.250000
-247.459457 106.054047 577.000000
-248.398590 108.831802 575.666687
-247.122787 108.747490 577.000000
-248.686096 111.116058 575.750000
-246.575684 111.104248 577.000000
-248.374390 113.264938 576.000000
-246.165253 112.993614 576.333374
-248.469513 116.154442 577.000000
-247.459457 116.659454 577.000000
-248.860855 118.601387 575.571472
-248.038864 120.993393 576.000000
-248.087280 123.875885 575.333374
-247.751770 125.889549 575.333374
-247.608231 128.333527 575.000000
-247.459457 128.274902 577.000000
-248.254181 130.687073 576.500000
-248.469498 134.335129 577.000000
-248.830963 136.504868 575.500000
-252.640930 138.902176 575.000000
-250.627838 139.405457 575.000000
-249.391647 138.797165 575.400024
-251.131104 140.915253 575.000000
-249.536255 141.410645 576.200012
-248.734406 143.765366 575.666687
-248.398590 146.517731 576.250000
-247.173553 146.286957 576.333374
-250.489563 149.485703 577.000000
-248.998749 148.726563 576.666687
-247.459457 148.475662 577.000000
-251.131104 151.987167 575.000000
-251.499619 154.030884 577.000000
-251.499619 156.050949 577.000000
-251.499619 158.576050 577.000000
-250.055435 174.433823 576.000000
-249.479538 174.736679 577.000000
-250.198532 176.625458 575.750000
-251.162933 179.113510 577.000000
-245.864746 -4.047156 578.000000
-244.852966 -3.541262 578.000000
-246.290115 1.013540 579.000000
-246.796875 4.054158 579.000000
-246.290115 5.067698 579.000000
-248.394226 9.106101 578.000000
-249.330734 10.135395 579.000000
-247.303650 12.162475 579.000000
-248.394226 14.165047 578.000000
-246.290115 21.284330 579.000000
-245.864746 23.777042 578.000000
-246.330368 26.329710 578.500000
-246.290115 28.379107 579.000000
-248.900116 78.919548 578.000000
-248.823975 91.218552 579.000000
-247.888321 104.214272 578.000000
-247.161285 106.359802 578.666687
-246.876541 108.261429 578.000000
-247.888321 114.332161 578.000000
-246.796875 114.529968 579.000000
-247.888321 115.343948 578.000000
-246.690109 116.000381 578.750000
-248.102753 118.988487 578.500000
-248.102753 126.582161 578.500000
-247.888321 129.509003 578.000000
-248.317200 130.746597 579.000000
-249.330734 136.321060 579.000000
-248.900116 138.615112 578.000000
-248.900116 141.144562 578.000000
-248.608658 143.292435 578.500000
-248.900116 149.744781 578.000000
-250.923691 151.262451 578.000000
-248.939392 151.157425 578.428589
-247.303650 150.003845 579.000000
-250.923691 153.791931 578.000000
-249.679443 153.695663 578.400024
-250.633972 156.456635 578.500000
-249.330734 156.085083 579.000000
-250.691925 158.758102 578.400024
-250.923691 161.380371 578.000000
-249.563217 176.436386 578.600037
-249.513672 178.658234 578.250000
-251.309082 181.266907 578.500000
-252.947266 183.133804 578.000000
-246.292450 1.017624 581.000000
-246.715485 3.045870 580.000000
-247.566238 12.225492 582.000000
-247.960678 13.568126 581.333374
-250.407288 16.796047 581.500000
-248.612167 16.291615 581.666687
-250.622604 19.357029 582.000000
-248.585052 18.847635 582.000000
-246.745239 21.382940 581.666687
-245.700195 24.366961 580.000000
-245.912003 25.912651 580.500000
-249.174927 77.295074 581.000000
-248.978302 78.696060 581.333374
-248.767410 81.159142 581.000000
-250.191956 83.397324 581.000000
-249.066833 83.614380 580.750000
-250.700470 88.991043 581.000000
-248.960480 88.914902 580.500000
-250.191956 90.516594 581.000000
-249.174927 90.516594 581.000000
-249.174927 93.567719 581.000000
-250.622604 102.897896 582.000000
-248.880859 103.826538 581.500000
-247.566238 105.954269 582.000000
-246.547440 106.973061 582.000000
-247.944321 118.383682 580.500000
-247.140839 118.993736 581.000000
-248.960480 121.432182 580.500000
-249.174927 123.061905 581.000000
-248.496918 131.198227 581.000000
-250.622604 133.971024 582.000000
-249.603821 133.971024 582.000000
-249.317902 136.361618 581.333374
-248.746048 138.587097 580.000000
-248.746063 141.125305 580.000000
-248.746048 143.155884 580.000000
-248.157883 151.539032 581.000000
-248.558746 153.506592 580.750000
-248.916901 156.258713 580.400024
-249.468140 159.029877 580.500000
-250.738129 161.570282 580.500000
-249.656342 161.124207 581.333374
-250.915802 163.884445 581.500000
-250.771393 165.687637 581.400024
-249.603821 166.062958 582.000000
-248.746063 178.691040 580.000000
-250.484299 181.893585 580.500000
-249.513367 181.372803 581.000000
-253.243088 184.084320 581.000000
-251.424774 183.733780 581.500000
-253.243088 185.609879 581.000000
-252.226059 185.101364 581.000000
-248.416977 -10.222920 584.000000
-246.883530 -8.689482 584.000000
-245.950500 2.041083 583.000000
-244.929962 2.041083 583.000000
-246.771515 3.403556 583.333374
-247.991608 14.287581 583.000000
-247.182861 13.789564 583.500000
-247.991608 16.838936 583.000000
-247.112274 16.338001 583.333374
-246.407394 18.797220 583.600037
-250.542953 20.410831 583.000000
-249.012146 20.410831 583.000000
-246.971054 20.410831 583.000000
-245.950500 26.534079 583.000000
-248.570313 78.634911 583.400024
-247.991608 81.133057 583.000000
-246.971054 80.622787 583.000000
-248.416977 82.805656 584.000000
-248.813766 89.518822 583.333374
-248.813766 91.220306 583.333374
-250.461548 93.028564 584.000000
-249.439255 93.539719 584.000000
-249.439255 95.073166 584.000000
-247.991608 105.115776 583.000000
-249.154526 121.513298 583.333374
-247.991608 131.649857 583.000000
-248.774078 133.782669 583.400024
-248.714569 136.359131 583.500000
-247.053925 136.305603 584.000000
-248.813766 138.192062 583.333374
-249.439255 140.054001 584.000000
-248.813766 156.232132 583.333374
-249.012146 158.694199 583.000000
-249.439255 161.011017 584.000000
-250.515839 163.720200 583.333374
-250.032700 166.348267 583.000000
-249.439255 166.633606 584.000000
-250.461548 168.678177 584.000000
-250.372864 184.377853 583.000000
-249.439255 184.012558 584.000000
-253.017273 187.079437 584.000000
-251.106796 186.338623 583.600037
-253.238449 187.887009 583.333374
-250.461548 188.101730 584.000000
-247.216125 -20.515863 586.000000
-247.216125 -18.977171 586.000000
-246.934875 -16.393433 585.333374
-248.382553 -13.856085 586.333374
-248.341705 -11.623030 585.833374
-246.189621 -10.668597 586.000000
-244.555359 -10.275435 587.000000
-245.887054 -8.726243 586.500000
-244.555359 -9.247891 587.000000
-247.818298 -6.656277 585.000000
-246.794235 -6.656277 585.000000
-246.671722 3.762992 586.333374
-247.698105 6.159427 586.333374
-246.761871 5.906188 586.750000
-247.637985 8.220348 587.000000
-246.610443 8.220348 587.000000
-247.728149 12.309517 586.000000
-246.610443 12.330523 587.000000
-246.387253 13.830701 585.250000
-246.492584 16.398392 585.500000
-245.770187 19.456808 585.000000
-246.794235 20.992870 585.000000
-248.408661 76.295105 587.000000
-248.453735 78.539688 586.500000
-248.045868 81.141808 586.750000
-249.267731 92.321373 586.000000
-249.480408 93.939713 586.500000
-249.267731 95.398758 586.000000
-248.442062 133.960526 585.666687
-247.818298 135.173599 585.000000
-247.005188 136.313202 585.500000
-248.442062 139.087143 585.666687
-247.216125 138.482071 586.000000
-249.266571 141.387909 586.000000
-250.720627 144.883652 587.000000
-249.779739 144.124802 586.000000
-250.920776 146.513367 586.666687
-249.125916 158.906296 585.666687
-248.925812 161.391449 586.000000
-250.293518 164.126907 586.000000
-249.337433 163.831345 586.166687
-249.277481 166.381058 586.714294
-249.673401 168.671188 585.750000
-249.823059 186.535034 585.500000
-253.450531 189.447861 585.000000
-251.360458 189.353790 585.500000
-249.750854 188.510773 586.333374
-250.635468 191.139450 586.000000
-249.693100 190.095581 587.000000
-246.725098 -24.209415 588.500000
-246.623276 -20.952904 588.666687
-246.954254 -18.552149 588.799988
-246.458130 -15.867583 588.600037
-246.210144 -13.907141 588.500000
-246.467773 -12.104709 588.500000
-244.971970 -11.322234 588.000000
-244.971970 -8.234352 588.000000
-246.362747 -6.950799 588.250000
-248.059860 9.263646 588.000000
-247.030563 9.263646 588.000000
-248.679977 10.812402 588.250000
-247.450684 10.825968 589.000000
-248.481720 76.297287 589.000000
-248.481720 78.874901 589.000000
-248.059860 81.314240 588.000000
-247.030563 81.314232 588.000000
-248.059860 83.372818 588.000000
-249.100372 93.825043 589.000000
-247.450684 92.793999 589.000000
-249.512772 95.887146 589.000000
-248.059860 139.983994 588.000000
-248.270782 141.648712 588.500000
-250.331146 146.799561 588.500000
-251.059357 148.470398 589.000000
-249.089172 162.628479 588.000000
-251.059357 184.041443 589.000000
-250.331146 185.945099 588.500000
-249.512772 186.619049 589.000000
-249.230377 188.467010 588.333374
-250.118469 191.448700 588.000000
-249.089172 190.419403 588.000000
-246.115936 -23.595572 590.333374
-245.805206 -21.172298 590.000000
-246.063416 -18.590309 590.000000
-245.805206 -16.524719 590.000000
-245.187302 -13.449093 591.000000
-244.772400 -14.459130 590.000000
-244.772400 -12.393539 590.000000
-246.082077 3.618867 590.666687
-246.082352 6.203772 590.666687
-246.151535 8.791012 590.833374
-246.338135 11.223956 590.571472
-248.500977 79.209244 591.500000
-248.387192 93.984344 590.000000
-248.492218 96.090637 590.250000
-248.080856 141.095551 590.500000
-248.080856 143.163773 590.500000
-249.236710 146.201523 591.142883
-250.922821 149.106277 590.500000
-249.747330 148.190338 592.000000
-252.856262 152.335510 592.000000
-251.261520 151.344437 591.500000
-251.089554 155.830383 591.500000
-249.936401 156.984833 590.000000
-250.360046 159.320007 591.000000
-249.936401 158.017624 590.000000
-250.360046 160.354553 591.000000
-249.936401 161.115997 590.000000
-250.563110 176.462646 590.666687
-248.918289 176.792099 592.000000
-251.322815 178.753174 590.833374
-248.970108 178.501984 592.000000
-251.454346 181.384583 591.142883
-250.922821 183.218262 590.500000
-249.747330 184.460678 592.000000
-250.360046 185.183655 591.000000
-249.669739 186.563034 591.000000
-248.903595 187.968689 590.000000
-246.017029 -24.913116 593.000000
-248.511475 -6.238782 594.000000
-247.471680 -6.238782 594.000000
-250.169220 -3.114140 593.000000
-248.821747 -3.636664 593.500000
-247.471680 -3.639289 594.000000
-250.688232 -1.038047 593.000000
-248.612137 -1.557070 593.000000
-246.986206 -1.385813 593.666687
-250.169220 -0.000000 593.000000
-248.675690 0.831487 593.400024
-247.211731 1.299746 594.000000
-249.551270 56.149040 594.000000
-249.031372 59.268429 594.000000
-247.471680 59.268429 594.000000
-249.204681 61.001427 594.000000
-247.471680 61.348022 594.000000
-248.821320 76.880211 593.500000
-249.131165 77.853485 593.000000
-248.372040 81.058067 593.666687
-248.511475 83.703659 594.000000
-249.551270 110.218483 594.000000
-251.110962 116.977165 594.000000
-249.551270 116.977165 594.000000
-251.110962 118.536858 594.000000
-249.064636 119.162956 593.666687
-251.284271 121.309654 594.000000
-249.341217 121.034821 593.500000
-248.093109 142.212372 593.000000
-248.093109 143.769440 593.000000
-248.511475 146.091476 594.000000
-250.169220 149.478699 593.000000
-248.759354 148.798462 593.600037
-250.169220 151.035767 593.000000
-249.551270 151.290466 594.000000
-251.239777 154.038513 593.428589
-250.380142 156.357269 593.500000
-250.169235 158.821106 593.000000
-249.551270 158.569031 594.000000
-250.169220 161.416229 593.000000
-249.551270 161.168518 594.000000
-250.591064 163.248138 594.000000
-249.551270 163.248138 594.000000
-248.612137 179.582047 593.000000
-250.515244 180.966110 593.000000
-248.925171 181.068222 593.333374
-250.380142 183.370117 593.500000
-249.551270 183.004272 594.000000
-250.169220 185.810333 593.000000
-249.551270 189.243042 594.000000
-248.409088 -5.207738 595.000000
-247.676498 -4.180194 597.000000
-246.217163 -3.129894 596.000000
-246.008987 -1.668927 596.000000
-247.676498 1.045049 597.000000
-246.739105 -0.000000 596.000000
-248.662048 56.202312 596.142883
-246.453918 56.690197 596.571472
-248.618256 58.375679 595.500000
-246.261398 59.010761 595.600037
-248.409088 60.409760 595.000000
-246.220978 61.121044 595.166687
-244.763672 61.451305 595.000000
-245.696686 62.597878 596.000000
-248.825699 76.683289 596.000000
-248.999878 78.942894 596.000000
-248.304932 81.377243 596.000000
-248.095459 84.206650 596.333374
-248.512360 86.144745 596.500000
-249.348221 97.026718 596.000000
-249.766586 99.279610 597.000000
-248.513245 109.115669 596.500000
-249.347351 111.110367 596.000000
-250.977249 113.587151 596.400024
-249.487671 113.783096 596.333374
-251.012955 115.611786 595.000000
-248.971512 116.145340 595.600037
-251.533737 119.777969 595.000000
-248.554916 118.647148 595.600037
-247.261627 119.457626 596.000000
-251.012955 120.819519 595.000000
-248.409088 121.340286 595.000000
-246.685272 120.862411 596.500000
-247.888306 144.775116 595.000000
-246.846771 144.254349 595.000000
-247.888306 146.337433 595.000000
-246.739975 146.061737 596.000000
-247.888306 148.941315 595.000000
-247.261627 148.669983 596.000000
-248.513245 151.609070 595.250000
-246.591873 150.962082 596.400024
-248.720673 153.560654 595.750000
-247.261627 154.408112 596.000000
-249.376755 156.121613 595.714294
-247.261627 155.973053 596.000000
-248.661789 158.469528 596.142883
-248.721558 161.122147 595.750000
-251.012955 164.564514 595.000000
-249.695419 163.797211 596.000000
-250.913177 166.406036 596.000000
-251.334167 168.252823 597.000000
-248.409088 182.270828 595.000000
-249.451950 184.218689 596.250000
-250.601563 186.384491 596.500000
-249.971420 187.478561 595.000000
-249.713196 188.915710 596.250000
-248.091354 -5.757395 598.000000
-247.251114 -5.761771 598.500000
-246.726837 -4.190697 598.500000
-245.360580 -1.048550 599.000000
-244.950958 -2.093598 598.000000
-246.726837 0.523400 598.500000
-248.091354 53.910149 598.000000
-247.108154 54.175056 599.000000
-245.997772 55.480347 598.000000
-244.950958 56.527149 598.000000
-248.560501 66.265182 598.500000
-246.933411 65.010071 599.000000
-249.138168 76.416328 598.000000
-248.664215 78.608391 598.750000
-248.091354 81.126915 598.000000
-247.457672 81.786858 599.000000
-248.091354 83.220520 598.000000
-247.457687 83.883965 599.000000
-248.091354 85.837524 598.000000
-246.970459 86.282150 598.666687
-248.091354 87.931122 598.000000
-247.457672 88.078156 599.000000
-250.184952 96.305504 598.000000
-249.138168 96.828903 598.000000
-250.184952 98.399109 598.000000
-248.926346 98.522522 598.750000
-250.184952 100.492706 598.000000
-249.554764 100.660759 599.000000
-248.091354 109.390495 598.000000
-248.440292 111.658569 598.000000
-247.108154 111.845276 599.000000
-248.822205 113.672661 598.500000
-248.456787 115.981133 598.250000
-248.091354 118.288284 598.000000
-247.251114 118.910583 598.500000
-246.726837 121.530212 598.500000
-248.091354 123.522278 598.000000
-246.933411 122.680290 599.000000
-248.091354 159.113449 598.000000
-248.506226 160.952332 599.000000
-249.554764 163.573715 599.000000
-250.324402 166.533249 598.333374
-250.970062 169.319733 598.000000
-249.554779 168.816467 599.000000
-245.360580 168.816483 599.000000
-244.427567 169.581436 598.000000
-251.022568 171.366516 598.750000
-249.554764 170.913574 599.000000
-245.360580 170.913574 599.000000
-251.127594 173.010681 599.000000
-245.360580 173.010681 599.000000
-250.184952 186.853607 598.000000
-249.138168 186.330215 598.000000
-249.346466 189.104752 598.500000
-245.127777 -1.052050 601.000000
-244.719910 -2.100600 600.000000
-246.501038 0.526025 600.500000
-248.077362 66.750069 600.500000
-247.231873 66.279190 601.000000
-250.388031 69.435333 601.000000
-249.653687 68.326401 600.500000
-249.128540 76.209778 600.500000
-248.283920 78.903786 601.000000
-247.870819 80.873100 600.000000
-247.026184 81.466522 600.500000
-246.820511 83.498856 600.000000
-246.820511 85.074303 600.000000
-248.220917 99.428406 600.000000
-248.395966 100.828812 600.000000
-247.870819 109.231201 600.000000
-248.283920 110.465302 601.000000
-247.870819 113.957565 600.000000
-247.231873 114.673508 601.000000
-247.870819 116.058167 600.000000
-246.820511 116.058167 600.000000
