ply
format ascii 1.0
comment PCL generated
element vertex 1275
property float x
property float y
property float z
property uchar red
property uchar green
property uchar blue
element camera 0
property float view_px
property float view_py
property float view_pz
property float x_axisx
property float x_axisy
property float x_axisz
property float y_axisx
property float y_axisy
property float y_axisz
property float z_axisx
property float z_axisy
property float z_axisz
property float focal
property float scalex
property float scaley
property float centerx
property float centery
property int viewportx
property int viewporty
property float k1
property float k2
end_header
-36.678753 128.86534 428.5 177 147 141
-23.2799 129.16589 429 174 139 143
-20.977993 129.61403 428 176 150 149
-197.50366 131.41878 429 189 185 180
-196.21104 131.0932 428.28574 186 192 184
-193.67184 131.11246 428 186 183 168
-191.34927 131.41216 428 185 184 171
-189.30142 131.61194 428 185 187 167
-185.8051 131.86168 428 186 181 163
-184.30666 131.86168 428 182 179 161
-43.204678 130.61298 428 193 173 170
-41.113121 131.0188 428 195 175 168
-38.621284 131.24023 428.41669 194 175 169
-36.60952 131.60652 429 196 173 166
-23.07859 131.53038 428.75 187 168 166
-21.382008 131.29678 428.60001 185 166 163
-18.744648 131.58977 428.33334 187 165 166
-16.639963 131.49318 428.83334 184 159 158
-13.781051 131.40352 428.72729 184 154 152
-11.358338 131.51265 429 183 151 147
-9.1835604 131.37679 428.25 180 149 146
-211.77199 132.92072 429 255 255 255
-195.7946 132.86063 428 158 172 174
-193.74826 133.60413 428.58334 167 172 166
-191.1982 133.46436 428.33334 172 177 165
-188.79623 133.46141 428.625 179 177 162
-186.31433 133.4624 428.54547 184 175 163
-183.91031 133.75247 428.57144 171 163 151
-181.97806 133.43843 428.25 151 148 136
-179.31189 134.35905 428 151 146 138
-40.707298 132.86063 428 203 189 187
-38.676952 133.72209 428.20001 201 193 188
-36.346684 133.97208 429 205 190 183
-28.271742 133.93541 428.77777 200 186 186
-26.324339 134.00667 428.54547 200 188 186
-23.800755 134.00667 428.54547 200 186 181
-21.290867 133.89235 428.26669 198 184 180
-18.752232 133.89005 428.5 195 179 174
-16.439106 134.03516 428.63638 194 179 171
-13.874245 133.87079 428.4375 195 177 168
-11.249152 133.86411 428.41669 191 169 165
-8.8847303 133.84927 428.46155 187 166 165
-6.2710872 134.29088 428.36365 188 167 162
-3.7526345 134.25 428.75 189 166 164
-1.6482708 134.55884 428 183 164 165
0 134.85852 428 186 168 171
-221.65182 137.26633 428.5 229 248 252
-193.74884 135.1736 429 181 195 172
-191.30821 135.36134 429 182 187 167
-186.99017 135.1736 429 187 188 170
-182.1089 135.1736 429 148 152 139
-177.56372 135.60773 428 160 150 148
-176.21515 136.50679 428 186 179 168
-173.9675 136.8065 428 194 190 172
-38.436481 136.18791 428.14288 201 196 192
-36.317738 136.26884 428.66669 202 197 190
-33.793404 137.05103 429 201 198 189
-30.872986 136.5921 429 198 196 188
-28.68688 136.34628 428.18182 198 196 189
-26.222494 135.98233 428 198 192 183
-23.97485 135.98233 428 199 189 177
-22.101812 135.98233 428 193 179 173
-18.355743 135.60773 428 202 181 164
-16.48271 135.60773 428 197 184 171
-14.235067 135.60773 428 202 190 178
-8.2413549 135.60773 428 187 170 169
-6.1435547 135.75757 428 192 173 165
-3.6226597 135.78513 428.16669 197 178 174
-0.74921405 135.60773 428 193 176 174
-223.03647 138.17747 429 242 255 253
-220.97131 139.30391 429 232 240 241
-219.28163 139.30392 429 229 235 243
-216.66718 138.91119 428.28574 217 228 227
-175.31609 137.85538 428 194 187 173
-173.81766 137.85538 428 193 187 173
-38.509598 138.6046 428 201 196 193
-36.350739 138.65828 428.16669 201 193 190
-33.767147 138.8199 428.66666 198 196 192
-31.483521 138.67616 428.22223 195 196 191
-29.433411 138.49756 428.00003 196 193 190
-218.77049 140.10303 428 236 226 229
-216.89748 140.10303 428 200 216 213
-165.57631 140.10303 428 160 142 131
-38.531006 141.28036 428.00003 200 198 194
-36.336884 141.22687 428 202 197 195
-33.714634 141.22687 428 202 197 196
-31.466991 141.22687 428 200 197 195
-29.968561 140.10303 428 198 195 194
-40.457558 143.84909 428 199 201 189
-38.959126 143.84911 428 198 196 190
-36.336884 143.84909 428 195 198 193
-33.71463 143.84911 428 197 198 191
-31.560642 143.84909 428 199 198 191
-40.457558 146.09674 428 200 197 191
-38.628979 146.11777 428.5 194 195 193
-35.931862 146.25909 428.75 187 193 194
-33.732334 146.17299 428.22223 192 193 194
-31.46699 146.09674 428 198 194 189
-38.299187 147.94 429 200 200 194
-35.295334 148.31549 429 200 198 193
-33.663868 148.3779 428.71429 199 198 193
-31.741819 148.70995 428.33334 198 199 194
-29.968561 149.4682 428 200 198 195
-235.56129 69.193764 432 83 63 52
-233.8598 69.38282 432 84 63 54
-231.78021 69.571877 432 85 64 59
-235.39322 70.542526 431 81 64 54
-233.81779 70.928688 430.60001 84 66 56
-231.31381 70.609924 430.42859 86 66 54
-228.62259 71.255867 430.42859 86 66 55
-226.48999 72.009232 430.75 85 68 58
-223.53302 72.204628 431.16669 85 69 59
-221.31485 72.134605 431.5 89 67 60
-225.81451 73.013359 430 86 69 58
-223.55637 73.766083 430 86 69 61
-220.99959 73.515579 430.30002 87 68 62
-218.7538 73.767693 430.69232 87 68 62
-216.6739 74.492035 431.71429 87 69 62
-214.76535 74.865387 432 89 70 60
-212.11861 74.865387 432 90 69 59
-207.95941 74.865387 432 87 70 60
-207.2032 74.865387 432 86 70 61
-223.55637 75.2715 430 90 69 64
-220.79643 75.522408 430 88 69 62
-218.78917 75.773308 430 90 71 62
-215.98291 76.035667 430.45456 89 70 63
-213.84343 75.941071 431.66669 91 70 64
-211.21249 76.005402 431.5 92 70 64
-208.85095 76.288719 431.5 91 70 65
-206.50212 76.417725 431.80002 90 71 64
-203.95146 76.52906 432 88 71 62
-201.90968 77.134033 432 87 69 62
-195.85995 77.134033 432 90 72 66
-208.00027 77.780556 430 91 74 63
-206.15445 78.240349 430.60001 95 74 64
-203.74437 78.604164 431.08334 95 73 64
-201.34639 78.920166 431.14288 92 71 63
-198.74976 78.883461 431.07693 90 72 64
-196.0849 78.90741 431.07144 92 73 67
-193.69949 79.291878 431.39999 92 73 67
-191.28514 79.728783 431.42859 92 72 68
-183.00429 79.024582 432 93 72 65
-182.24806 78.646469 432 92 73 64
-201.22583 80.540512 430 98 72 65
-198.52858 80.728691 430 98 72 67
-196.45862 80.91687 430 99 74 68
-193.96782 81.241837 430.09091 96 73 68
-191.18962 80.91687 430 93 74 67
-188.67783 80.66391 431 92 71 66
-186.29453 81.292656 431.33334 92 72 66
-183.84383 81.365807 431.9231 93 72 67
-182.05901 81.86039 432 95 73 68
-95.871826 81.906342 431.25 93 63 54
-93.918045 81.835663 431.375 92 62 53
-91.826859 82.00174 431.75 91 65 53
-194.20049 82.79866 430 100 76 69
-185.73244 82.986832 430 93 73 70
-184.02696 83.579773 431.44446 94 74 68
-181.4483 83.83889 431 99 75 68
-178.72371 83.91217 431 99 74 66
-176.20796 83.915298 431.10001 99 74 66
-173.72838 84.22007 431.5 100 76 68
-172.41725 83.939987 432 100 76 67
-168.2458 84.500145 431 99 76 74
-158.04915 84.696198 432 101 76 70
-156.91483 84.696198 432 101 76 71
-112.90725 84.304085 430 85 62 56
-94.089378 82.798653 430 91 64 59
-91.10128 83.556183 431 90 63 55
-89.078568 83.227959 431.25 91 62 54
-86.185875 83.551376 430 90 62 55
-83.551369 83.551369 430 91 63 55
-81.443779 83.852455 430 91 62 53
-78.184334 84.213058 430.5 90 61 53
-76.318886 83.874634 431.66666 91 61 55
-73.806694 84.54496 432 90 62 55
-70.328094 84.696198 432 91 62 54
-69.193771 84.696198 432 91 63 55
-31.292814 84.451126 430.75 100 63 57
-28.60317 84.304092 430 101 61 56
-177.64075 85.056793 430 99 78 69
-176.13531 85.056793 430 101 75 69
-171.33676 85.715424 430 103 79 71
-168.60817 86.185875 430 106 78 71
-166.2886 86.030663 430.16669 104 78 71
-163.89125 86.499626 430.84616 106 77 73
-161.3051 86.76284 431 108 76 69
-158.72382 86.364578 430.58334 106 78 68
-156.20837 86.392685 430.50003 107 77 70
-154.17105 86.633507 431.42859 105 78 71
-146.07574 86.460709 432 97 71 67
-143.68106 86.964844 432 96 72 66
-141.10992 86.511116 432 94 70 62
-138.92961 86.830643 431.33334 92 70 61
-136.69743 86.988907 430.25 90 69 63
-133.23055 86.185875 430 86 66 62
-77.529648 85.056793 430 90 62 53
-75.876396 85.915123 430.11111 91 61 52
-73.755035 86.221016 430.61539 90 61 52
-71.35141 86.263481 431.33334 90 62 52
-68.797768 86.186256 431.88889 91 63 55
-66.017662 86.359871 432 91 62 58
-63.673389 86.662354 432 90 62 57
-60.875397 86.964844 432 89 62 52
-58.984856 86.964844 432 90 62 51
-40.079449 86.964844 432 93 63 54
-38.508087 86.830643 431.33334 95 61 53
-36.130825 86.282158 431.28574 97 61 51
-33.950947 86.009071 431 98 63 52
-31.192165 86.190437 430.40002 99 63 56
-28.603172 86.185875 430 99 61 57
-26.775152 86.024582 430.00003 100 60 55
-163.48053 88.281219 430.125 109 82 73
-161.31602 88.238106 430.375 109 78 72
-158.71532 88.605316 430.00003 109 81 74
-156.08574 88.751938 430 109 81 72
-153.54338 88.545982 430.5 109 81 73
-151.24463 88.882591 430.63638 106 83 74
-148.86954 89.282936 430.875 104 82 74
-146.29568 88.6287 431.42859 102 76 69
-143.63542 88.800751 431.21429 100 75 69
-141.22131 88.734612 431.41669 99 72 69
-138.71458 87.826965 430.66669 95 71 65
-73.577896 88.255836 430 87 60 50
-71.100067 88.573547 430.26669 88 61 52
-68.616257 88.597336 430.75 87 62 56
-66.323875 88.624863 431.30771 88 61 54
-63.706192 88.765533 431.20001 88 62 52
-61.147156 88.700462 431.25 89 61 52
-58.859833 88.665741 431.08334 88 61 52
-56.415745 88.830132 431.35715 89 60 50
-53.770111 89.301979 431.875 88 60 53
-51.422695 89.611595 432 87 60 54
-49.343102 89.800659 432 86 59 54
-40.079449 89.611603 432 89 62 53
-38.552429 88.820824 431.83334 92 61 54
-36.221931 88.665756 431.08334 94 60 56
-33.898582 88.511841 430.33334 96 61 56
-31.538757 88.424751 430.11111 97 61 56
-28.854076 88.318565 430 98 59 56
-155.0593 90.325806 430 111 84 73
-153.55386 90.702171 430 111 84 73
-151.29573 90.626892 430 109 84 73
-148.69543 91.010094 430 106 83 75
-146.02672 91.078529 430 105 80 73
-143.76859 91.078529 430 103 80 73
-141.81151 90.777435 430 101 76 71
-70.25341 90.576714 430 86 62 53
-68.402985 90.984428 430 86 61 53
-66.238922 91.078522 430 87 60 52
-64.01384 91.125206 430.22223 87 59 51
-61.346275 91.078514 430 87 60 50
-58.711773 91.078522 430 84 59 50
-56.453625 91.078522 430 85 58 51
-53.86026 91.148979 430.33334 89 60 52
-51.343338 91.360344 431.33334 87 60 54
-48.719189 91.395653 431.5 86 58 51
-46.255219 91.754227 432 89 57 50
-43.709286 91.955872 432 89 58 51
-40.83567 91.826241 432.00003 89 60 52
-38.518002 91.384277 431.44446 89 60 53
-36.139851 91.101852 430.11111 90 60 53
-33.872177 91.078529 430 93 59 52
-32.366745 90.325806 430 95 60 57
-145.274 92.960312 430 107 83 77
-143.76859 92.960312 430 104 82 73
-141.88678 92.960304 430 102 78 72
-66.453987 93.229149 430.00003 86 60 53
-64.357132 93.148491 430 86 60 52
-61.722633 92.583954 430 88 59 50
-57.959053 92.583954 430 85 58 50
-56.453625 92.583954 430 85 57 50
-53.680843 93.207657 430.10001 88 59 53
-51.295605 93.551804 430.30002 88 59 56
-48.845413 93.692421 430.30771 86 58 54
-46.360249 93.85218 430.64288 86 57 52
-43.815212 93.673744 431.55557 88 57 50
-41.549286 93.673744 431.55557 88 58 51
-38.732151 93.738823 430.46667 87 59 53
-36.280869 93.562492 430 87 61 52
-34.624889 92.583954 430 90 60 51
-48.173763 95.59481 430 89 58 56
-46.062023 96.093864 430.09091 87 57 53
-43.699631 96.06337 430.41669 86 57 48
-41.439445 96.06337 430.41669 87 55 46
-38.858807 96.248688 430.07693 89 56 51
-36.883038 95.59481 430 89 58 52
-45.162903 97.852951 430 88 60 54
-43.657471 98.605667 430 87 57 52
-41.399326 98.605675 430 88 55 50
-38.76482 98.605667 430 90 55 53
-36.883038 98.605667 430 88 57 53
-43.334881 100.86382 430.00003 87 58 54
-41.503128 101.08456 430.30002 88 57 54
-38.692108 101.01598 430.15387 90 56 54
-36.318504 101.61653 430 90 58 52
-34.373989 102.11835 430 90 58 51
-41.30616 103.55979 430.77777 89 59 54
-38.825954 103.65196 431.00003 89 59 52
-36.139854 103.90171 430.11111 90 57 51
-33.872177 103.87467 430 91 57 50
-31.80221 104.43921 430 91 57 51
-28.60317 104.6274 430 90 59 54
-40.244873 106.18621 431.75 92 60 54
-38.75655 106.51254 431.81821 91 60 53
-36.261219 106.51736 431.55557 91 59 53
-33.968647 106.43488 431.22223 93 58 52
-31.304485 106.35924 430.91669 92 58 53
-28.662493 106.35241 430.88889 90 59 52
-26.359034 106.18787 430.22223 101 60 58
-24.839596 106.50918 430 122 84 79
-38.854904 108.68102 430.69232 92 61 52
-36.270752 108.8109 431.66666 93 60 56
-33.995102 108.78308 431.55557 95 59 56
-31.280504 108.92744 430.93335 94 57 55
-28.653057 108.95638 430.75 91 58 53
-26.439117 108.29688 430 98 60 56
-38.360138 111.24492 430.45456 95 61 59
-36.242355 111.369 431.33334 97 61 56
-34.005531 111.13319 430.81821 99 60 55
-31.529131 110.96333 430.125 95 59 54
-28.979527 110.64911 430 92 59 54
-37.886658 113.15816 430 97 62 55
-36.224415 113.56587 430 98 61 53
-34.248535 112.90725 430 98 63 53
-36.883038 115.1654 430 99 62 59
-235.39322 124.48681 431 251 250 255
-233.49219 124.19799 430 250 253 253
-230.93297 124.19799 430 248 253 251
-228.82536 124.1039 430 250 251 254
-226.31631 124.32344 430 251 254 252
-223.55637 124.95071 430 249 253 254
-221.48642 124.76253 430 252 252 254
-219.04008 124.9507 430 254 253 255
-35.628517 124.4489 430 131 86 90
-34.248535 124.9507 430 137 90 95
-235.93939 125.53187 432 251 251 255
-233.65149 126.01646 431.5 241 251 252
-231.35025 126.20033 431.375 248 253 249
-228.67073 126.29411 431.44446 252 252 253
-226.19887 126.25357 431.14288 251 250 253
-223.46333 126.27732 430.85715 249 253 253
-221.05054 126.15328 430.25 253 254 251
-218.739 126.3056 430 253 253 254
-216.36357 126.6306 430.16669 243 250 252
-214.14743 126.83249 430 248 252 255
-35.753967 126.45613 430 154 114 114
-34.087238 126.56367 430.00003 158 115 115
-31.990387 127.20885 430 171 128 122
-29.355885 127.20885 430 165 123 121
-230.64589 128.55673 432 250 252 250
-228.62932 128.38869 432 253 252 252
-226.1086 128.17862 432 251 249 253
-223.73195 128.34067 432.00003 250 254 253
-221.34547 128.46548 431.375 252 254 251
-218.41646 128.43004 430.625 252 253 254
-215.97433 128.75517 430.85715 248 251 251
-213.72931 129.12138 431.00003 252 253 254
-211.85986 128.98526 430.39999 254 255 255
-206.24393 129.46698 430 202 203 200
-203.68791 129.26627 430.16669 199 192 175
-202.07904 129.31601 430.75 201 188 157
-35.377605 128.71428 430 174 137 133
-33.898434 128.81464 430.33334 173 138 134
-31.262325 128.8145 430.33334 175 137 133
-28.603167 128.71428 430 172 130 131
-26.452562 128.92935 430.00003 172 134 131
-24.463238 129.09064 430 169 136 141
-228.37724 130.06917 432 255 253 252
-221.9494 130.06917 432 249 251 254
-215.84943 130.75885 430.71429 245 249 253
-213.54591 131.14439 430.875 252 253 253
-211.64342 131.46002 430.77777 253 254 255
-207.74936 130.2197 430 226 231 234
-206.14983 130.87833 430 200 199 199
-203.71085 131.26601 430.78574 197 188 166
-201.36053 131.25652 431.28574 193 185 149
-199.1223 131.45059 430.33334 189 185 164
-35.628517 131.34877 430 187 164 159
-33.88501 131.3994 430.16669 189 166 162
-31.190685 131.25209 430.53848 188 166 162
-28.614111 131.39983 430.16669 190 166 165
-26.34503 131.34877 430 189 167 165
-24.46324 131.34879 430 187 164 161
-15.807015 132.47784 430 189 166 162
-8.2798662 132.47784 430 183 154 152
-211.30023 133.33325 430.33334 254 254 255
-203.42212 133.09402 432 204 181 149
-201.15347 133.09402 432 199 184 150
-198.57147 133.00824 430.5 191 188 170
-190.4369 134.73599 430 175 172 165
-182.15704 134.73599 430 151 150 137
-35.753967 133.6069 430 202 186 180
-33.872177 133.98326 430 203 189 184
-31.352276 133.84732 430.53336 200 188 183
-29.355885 133.98328 430 200 184 183
-25.592312 133.23055 430 200 183 183
-24.463238 133.23055 430 199 182 179
-17.312445 133.23055 430 192 172 176
-7.5271506 133.23055 430 185 160 162
-6.398078 133.23055 430 186 161 161
-222.82553 137.0939 431.5 240 253 253
-220.93587 137.0939 431.5 244 250 253
-219.79279 136.61778 430 248 248 252
-190.28111 135.64581 430.5 183 186 167
-188.55511 135.48871 430 185 184 170
-185.92062 135.48871 430 184 179 168
-33.872177 135.86508 430 205 195 189
-31.864937 135.99052 430 202 194 187
-221.161 138.58429 431.20001 233 250 252
-37.63575 148.28488 430 201 200 195
-36.412594 148.9435 430 201 198 193
-34.248535 149.79028 430 200 198 194
-33.872177 150.543 430 200 197 196
-32.366745 150.543 430 200 198 197
-236.65184 66.855095 434 79 59 55
-236.31468 67.887192 433.80002 83 61 55
-234.05511 68.654861 433.71429 83 63 55
-231.3338 69.324173 434 84 65 59
-227.9151 69.893967 434 84 67 60
-226.77551 69.893967 434 84 66 57
-231.33383 70.653687 434 87 65 57
-228.29497 71.033539 434 86 68 58
-226.20006 71.256294 433.625 85 68 60
-223.86095 71.228546 433.80002 86 67 57
-221.20282 71.710114 433.5 89 66 60
-218.4624 73.073456 433.33334 85 68 59
-216.39462 74.029518 433.75 85 69 61
-213.69754 73.909622 434.00003 87 68 58
-211.3157 73.842316 433.88889 86 70 59
-208.83684 73.723404 433.625 84 69 59
-206.49109 74.148376 434 83 70 56
-203.86584 74.409378 433.75 85 69 58
-214.62006 75.21199 434 90 69 58
-211.33699 75.125336 433.5 89 71 60
-209.57776 75.038689 433 88 71 60
-206.16692 75.038689 433 84 71 62
-203.48514 75.4133 433.28574 85 70 62
-201.2787 76.496376 433.45456 85 69 58
-198.61874 77.232063 433.39999 88 70 60
-195.34996 77.178375 433.66669 88 71 65
-193.72784 77.491135 434 89 72 67
-196.15929 78.160698 433.5 91 72 67
-193.42676 78.395264 433.75 90 72 68
-191.37517 78.853607 433.83334 91 72 68
-188.7352 79.367447 433.875 91 71 64
-186.18843 79.253014 433.25 93 72 64
-184.18587 79.283302 433 92 71 65
-182.33206 79.770279 434 92 72 64
-182.66992 80.344444 433 93 72 65
-181.479 81.247902 433.77777 95 71 67
-93.987854 81.102425 433 93 63 52
-180.79759 83.036026 433.60001 98 74 66
-178.80963 82.950951 433.75 97 74 66
-175.94031 83.036026 433.60001 98 72 67
-174.73491 83.189011 434 99 74 66
-159.17297 84.89225 433 101 77 68
-91.166031 82.809158 434 91 65 53
-75.358589 83.330368 433.75 93 62 56
-73.555351 83.425331 433.75 91 62 55
-71.515976 83.890083 433.70001 91 62 54
-68.801361 84.23114 433.5 90 63 56
-66.224915 84.650681 433.42859 91 63 60
-63.968964 84.469505 433.75 91 62 58
-61.537079 84.328598 434 90 61 53
-165.42752 85.369263 433.5 102 75 72
-163.65572 85.435196 433.83334 103 74 68
-160.99786 85.688141 433.83334 104 75 66
-150.80383 87.367455 434 98 78 70
-148.33473 86.797668 434 97 73 68
-146.11914 85.577049 433.39999 94 69 65
-144.01364 86.408188 433 93 69 64
-141.63208 86.268135 433.25 93 70 61
-67.080032 85.650223 433 93 61 58
-63.465256 85.589249 433.33334 90 62 56
-61.29974 85.844666 433.66669 90 61 51
-58.530205 86.000633 433.72729 91 62 52
-56.598915 86.987595 434 91 62 51
-54.699623 87.367455 434 90 62 54
-50.521179 87.367455 434 86 58 55
-48.621887 86.987602 434 86 61 53
-47.102455 86.987595 434 89 62 52
-42.544151 86.987595 434 91 61 56
-41.119686 86.512772 434 93 63 55
-39.125427 86.607742 434 97 62 55
-152.70313 88.127174 434 105 81 73
-151.1837 88.127182 434 101 80 72
-149.02664 88.353867 433.25 100 77 72
-55.331554 88.303101 433 92 61 50
-53.687836 88.215134 433.5 90 62 54
-51.251141 88.455826 433.75 87 60 54
-48.584156 88.81823 433.66666 86 58 53
-46.437698 88.981857 434 89 58 52
-43.580135 88.955971 434 89 59 52
-41.084236 88.714912 433.625 91 61 53
-47.751892 90.198013 433 88 57 54
-46.144936 90.772758 433.33334 90 57 52
-44.085098 90.769188 433.14288 89 58 52
-41.782906 90.861229 433 89 60 52
-236.37875 126.72658 433.5 248 252 252
-234.21165 127.33838 433 247 250 249
-237.03169 127.63245 434 251 251 251
-233.34384 128.62411 433.5 248 252 252
-231.50319 128.73921 433.25 249 252 250
-228.29497 129.91161 434 252 251 253
-226.17723 129.15752 433 251 253 254
-224.35808 129.61229 433 252 254 254
-228.67484 130.67133 434 255 253 252
-226.23428 130.64262 433.39999 250 253 253
-224.23773 130.90063 433.5 252 252 254
-202.37704 134.16006 433 205 185 145
-222.59709 139.02821 434 237 250 252
-221.24338 138.30936 433.33334 241 250 250
-220.31793 144.34624 434 205 211 198
-219.17836 144.34624 434 184 200 189
-238.67017 64.257362 437 75 60 51
-236.88525 64.002373 437 76 60 52
-237.85092 65.942215 435.5 77 60 53
-236.08565 65.917374 435.9231 79 59 53
-233.54385 66.551735 436 84 62 54
-231.57262 66.796631 436.60001 83 63 53
-235.29346 67.770607 435 83 60 56
-233.77054 67.770615 435 83 63 56
-231.41985 68.141464 435.28574 84 63 55
-228.86873 68.838219 435.33334 83 65 60
-226.52242 68.765594 436 84 64 56
-223.8808 69.612137 437 83 65 58
-221.4584 69.612129 437 81 66 59
-230.72466 70.816483 435 87 67 59
-229.70938 70.308838 435 85 67 62
-225.77512 70.055008 435 85 65 56
-223.62114 70.597488 436 86 66 58
-220.98505 71.299942 436.27274 85 67 58
-218.73338 71.152763 436.60001 83 67 57
-216.38307 71.290123 436.57144 83 68 58
-213.88254 72.140442 435.33334 85 68 58
-211.43417 72.339417 435 85 69 59
-208.54829 71.654625 436.39999 84 68 62
-207.30647 71.907043 437 84 67 62
-218.4948 72.704109 435.66669 83 68 58
-216.12396 73.089073 435.5 84 69 60
-214.35312 73.100883 435 85 68 58
-211.68799 73.100883 435 86 69 59
-208.31966 72.743782 435.60001 84 67 59
-206.43939 73.164673 435.88889 83 68 56
-203.72144 73.918655 435.33334 85 68 57
-200.26596 76.146751 435 86 70 56
-195.38382 75.558578 436 88 69 63
-193.92686 76.351212 435.30002 87 70 65
-191.24994 76.374794 435.90912 89 70 63
-192.65129 77.669685 435 89 72 68
-190.82028 77.953262 435.16669 91 71 65
-188.84396 78.431152 435 92 71 64
-182.75221 79.192627 435 92 72 64
-181.12999 79.570976 435.28574 92 71 64
-179.17856 79.656067 436.5 92 70 64
-180.46782 81.47702 435 97 71 67
-178.79781 81.201828 435.57144 96 71 65
-176.36339 81.498779 436.28574 95 72 66
-174.17337 82.044189 436.39999 96 73 67
-166.12567 81.34166 437 92 67 59
-164.46825 81.851639 437 91 68 61
-162.17332 81.851639 437 92 70 62
-174.39532 83.190758 436 99 74 66
-167.52811 82.616608 437 93 72 64
-166.11667 83.55648 436.07693 94 72 64
-163.67969 83.630127 436.15387 96 71 65
-161.34964 83.692528 436.09091 95 72 65
-158.99889 84.250587 436.22223 95 74 67
-155.74759 84.45253 437 96 72 66
-153.77249 83.97538 436.55557 95 69 64
-151.11688 84.335304 436 96 68 64
-148.48618 84.522903 435 95 68 65
-146.96324 84.522896 435 94 68 64
-63.963272 83.761429 435 93 62 57
-60.155941 84.522896 435 90 64 54
-58.632996 84.522903 435 90 64 56
-56.159981 84.814354 436.5 89 62 55
-53.547802 84.911514 437 88 61 53
-52.01786 84.911507 437 86 61 53
-166.7614 85.28437 435 100 77 70
-163.71553 85.28437 435 103 75 66
-162.19258 85.28437 435 104 74 65
-157.58353 85.676476 437 103 77 71
-156.34679 86.009514 436.75 103 76 70
-153.65237 86.156105 435.90912 99 77 68
-150.84761 86.089798 435.22223 96 74 67
-148.79076 85.741249 435 95 71 68
-56.276329 85.884544 435.28574 89 62 54
-53.7761 86.193748 435.75 87 61 53
-51.351208 86.430939 435.66669 86 59 55
-47.972454 86.04583 435 89 63 54
-46.242764 85.963753 435.44446 90 61 52
-43.844078 86.163635 435.60001 91 61 52
-153.4357 87.568764 435 103 79 72
-151.15131 87.568764 435 98 78 70
-55.587128 87.568764 435 91 62 52
-53.302727 87.568771 435 88 62 54
-51.779793 87.568764 435 87 59 56
-45.941875 87.822594 435 90 60 52
-44.355484 87.759125 435 90 61 54
-237.85092 129.21753 435.5 251 251 252
-236.48949 128.96873 435.625 250 249 250
-238.12401 130.51028 436 251 251 255
-237.36081 130.51028 436 251 255 255
-221.92664 141.08798 435.66669 228 236 249
-222.94543 144.21439 436.66669 214 222 213
-221.2489 143.55734 435.83334 206 219 214
-219.30266 143.53664 435 187 203 198
-222.85965 145.39304 436 201 212 203
-221.33322 145.52025 436 198 206 193
-219.42519 145.77464 436 183 184 175
-239.06871 63.99012 438.66669 75 60 51
-236.55382 64.130447 438.75 79 60 52
-238.83296 65.171112 438 76 60 51
-235.92015 65.319908 439 82 61 52
-231.30933 66.549461 439 82 63 53
-229.19604 66.664734 439 84 63 55
-230.92511 67.62532 439 84 64 53
-229.00394 67.62532 439 84 65 54
-226.22188 68.348778 438.71429 82 63 55
-223.8447 68.874931 438.57144 81 63 58
-221.25882 69.083046 438.5 81 65 59
-219.20593 69.738609 439 84 66 60
-217.47687 69.930725 439 83 66 60
-216.14824 71.128075 438.80002 83 67 58
-214.403 72.236145 439 85 69 59
-180.57632 78.485855 438.5 91 69 63
-178.66672 78.961365 438.88889 91 70 63
-176.36375 79.92083 439 94 70 65
-175.71172 80.566765 438.33334 94 69 65
-174.4426 80.689293 439 96 68 65
-165.61131 81.272217 438 91 68 60
-161.9624 81.748352 438.5 92 68 61
-158.68895 82.22625 439 92 66 62
-160.62762 82.805656 438 92 69 64
-158.55284 83.499512 438.625 93 70 66
-156.93163 83.840202 438.60001 94 69 65
-221.83386 141.23734 438.5 223 232 239
-240.58171 62.072735 440.5 75 59 52
-240.19574 62.84383 440.5 75 58 50
-239.53844 63.158043 440 76 58 51
-236.71428 63.414787 440 78 60 52
-230.4332 64.845528 441 78 61 55
-229.36394 64.685654 441.66669 79 61 55
-232.60645 65.468697 440 80 62 52
-230.29579 65.468697 440 81 61 57
-228.67268 66.081573 440.66666 82 62 56
-226.38615 66.593689 441.22223 83 63 57
-223.86818 66.638695 441.375 82 65 57
-221.21796 66.895111 441.42859 82 65 55
-226.05957 67.779366 440 81 63 57
-223.74892 67.779366 440 81 63 58
-220.78885 68.197739 440.57144 82 65 59
-218.63287 68.955048 440.75 82 65 59
-216.13205 69.595505 441.75 82 65 60
-214.32074 69.634895 442 83 65 56
-216.4595 70.403709 441 83 66 59
-185.89052 76.888268 441 90 71 65
-183.50844 76.53537 441.00003 90 68 62
-181.1394 77.080353 440.33334 89 68 60
-178.49849 76.829453 440 89 68 58
-176.29462 77.15329 440.75 89 68 60
-186.17357 78.483673 441 91 72 65
-183.70605 78.680679 440.27274 91 70 63
-181.39615 78.107895 440.33334 91 69 62
-178.30594 78.17733 440 91 70 63
-176.30598 78.520775 440.20001 94 68 64
-174.18228 78.833778 440.28574 96 67 63
-175.61017 80.102882 440 95 69 65
-174.83995 80.102882 440 96 68 65
-158.66533 81.643326 440 91 65 61
-157.12488 82.413544 440 92 65 62
-221.22063 141.82727 440.33334 218 219 220
-230.05771 63.732208 444 79 61 52
-229.15096 64.278801 443.75 79 61 55
-228.33115 65.23764 443.66669 80 63 55
-226.69283 65.600861 443.5 82 62 56
-223.72353 65.915077 443 83 64 54
-220.7509 66.690552 443 83 64 53
-219.56523 66.841095 444 83 64 55
-219.44139 67.968414 443.75 83 64 56
-228.4337 63.875748 445 81 60 51
-227.14839 64.031548 445 83 60 51
-220.44922 66.212662 445 84 65 53
-219.67026 66.212662 445 81 64 54
-308.72522 206.81108 568 204 205 184
-307.2338 206.81108 568 186 201 170
-304.78656 207.17519 569 197 195 161
-309.16107 201.33786 570.33337 215 223 212
-308.85645 202.9057 571 209 215 204
-304.12402 206.83472 571.5 190 194 162
-308.39609 208.2675 572 191 202 162
-303.85767 207.90338 571 185 192 160
-309.93832 201.61034 573 216 224 211
-312.94739 203.61642 573 220 226 224
-311.6936 203.61642 573 212 221 216
-313.49356 206.98613 574 207 220 214
-311.44284 206.12401 573 203 219 204
-309.93832 206.12401 573 204 211 189
-303.9201 206.12401 573 187 195 162
-312.94739 207.62857 573 209 219 216
-311.44284 207.62857 573 203 214 198
-309.43677 207.62857 573 194 202 168
-306.92917 207.62857 573 192 195 166
-315.13202 206.04787 577 215 224 219
-313.11194 206.04787 577 207 217 210
-311.59689 206.55289 577 200 210 190
-310.08185 209.07799 577 192 195 166
-312.17014 204.73499 579 210 215 200
-311.31476 206.30518 578.66669 202 211 191
-309.60745 207.41676 578 187 201 173
-311.3938 208.60884 578.5 191 202 175
-308.86176 208.10207 578.5 191 198 169
-311.87317 206.22234 580.33337 206 213 197
-308.64813 207.11916 580 193 194 169
-311.69403 208.13445 580 195 204 178
-314.86591 205.4807 584 213 215 205
-311.79907 209.05872 584 193 199 168
-311.26517 210.23155 583 191 196 169
-314.38107 205.83253 585 213 215 205
-312.33295 206.85658 585 205 213 194
-313.35699 207.88063 585 208 212 189
-312.33295 207.88063 585 199 209 180
-317.02255 204.82951 588 218 231 217
-318.05185 205.85881 588 219 235 217
-316.69464 205.74854 588.66669 216 226 213
-309.71466 199.06555 590.75 204 221 218
-309.5838 200.53204 590.5 195 216 207
-316.57092 204.84003 591 220 235 225
-316.03525 207.59178 590 210 217 201
-310.37592 202.41907 593 201 213 199
-308.47311 201.37402 594 195 209 192
-305.70032 201.72063 594 189 203 179
-318.17789 210.03899 594 209 215 197
-309.33963 199.97714 595 201 212 202
-310.9028 201.35596 596 199 214 202
-308.55716 200.66595 595.5 200 207 194
-306.90939 201.36588 595 195 203 185
-319.24918 203.96478 596 231 239 238
-308.03113 204.13632 596.5 182 194 175
-306.72961 204.48642 596 181 191 169
-319.78485 205.87456 597 226 237 234
-308.28931 205.87456 597 179 193 172
-319.24918 208.65962 596 212 218 205
-320.87543 206.2019 601 229 235 229
-321.39182 209.00972 600 215 225 215
-320.60846 210.76108 600.5 211 219 197
-324.07883 206.13539 607 236 246 242
-324.07883 208.2605 607 227 232 229
-323.01105 210.75146 605 211 219 213
-322.4841 212.1606 606 210 221 204
-322.30731 213.33812 606.33337 206 214 194
-321.42242 216.76093 607 189 196 165
-323.5484 208.60359 608 229 230 225
-322.4841 208.60359 608 219 234 221
-325.14664 211.07881 609 219 227 228
-324.0806 216.40907 609 190 202 175
-320.99234 215.9823 608.40002 193 193 158
-319.41858 216.31979 608.75 185 188 158
-325.14487 207.49377 611 223 240 240
-325.677 208.90466 612 226 233 232
-324.07007 207.83336 612 215 227 233
-325.14487 211.77199 611 218 223 217
-324.07184 211.94443 611.5 208 219 207
-321.39178 212.11859 612 198 215 186
-323.40796 213.55576 610.75 203 213 197
-321.48038 213.96288 610.71429 191 194 175
-319.61447 214.38432 611.33337 185 187 158
-324.60574 217.47511 612 194 196 171
-319.00061 215.87341 610.5 186 191 164
-328.89096 207.43777 614 235 241 246
-327.28226 207.0999 613 235 244 255
-328.89096 208.51257 614 249 243 244
-325.13614 209.24602 613 218 231 235
-323.78998 208.8793 613.5 207 224 218
-321.36731 209.58739 614 199 211 195
-319.21771 209.58739 614 193 207 187
-324.06305 210.31908 613 209 223 210
-320.94263 211.59871 613.60004 202 212 187
-318.69043 211.31511 613.40002 188 198 176
-320.56821 213.71242 613.5 185 188 168
-325.66653 217.11102 614 200 204 170
-319.77081 215.68436 613 185 196 155
-327.2735 207.7756 615 234 255 248
-318.66104 209.92873 615 189 202 182
-327.2735 212.08183 615 229 230 225
-327.25772 212.77151 617 219 234 221
-319.73761 213.1584 615 183 187 172
-327.78812 208.24823 618 234 248 245
-326.29712 208.3327 618.25 222 231 235
-325.60962 212.37769 619 207 214 196
-323.98431 212.37769 619 207 213 192
-325.62451 213.65729 618 205 215 197
-321.2973 217.4436 618 185 188 159
-326.67834 211.63545 620 206 219 206
372.17032 305.29596 1661 123 112 111
375.07791 305.29596 1661 124 115 113
369.26276 308.20355 1661 130 122 120
372.17032 308.20355 1661 132 125 122
375.07791 308.20355 1661 133 127 125
377.98547 308.20355 1661 135 131 127
369.26276 311.11115 1661 139 134 126
372.17032 311.11115 1661 142 134 126
375.07791 311.11115 1661 143 137 127
377.98547 311.11115 1661 145 139 129
369.26276 314.01874 1661 132 133 133
372.17032 314.01874 1661 134 142 131
409.02185 303.84482 1669 117 106 120
411.94342 303.84482 1669 115 106 116
414.86502 303.84482 1669 115 106 116
417.78659 303.84482 1669 119 109 112
420.70819 303.84482 1669 123 104 112
423.62976 303.84482 1669 123 113 113
426.55133 303.84482 1669 124 112 114
429.47293 303.84482 1669 126 111 115
432.3945 303.84482 1669 128 113 112
435.3161 303.84482 1669 131 116 109
379.806 306.76639 1669 125 116 114
382.7276 306.76639 1669 126 115 116
385.64917 306.76639 1669 126 115 116
388.57077 306.76639 1669 127 114 117
391.49234 306.76639 1669 126 107 119
394.41391 306.76639 1669 125 116 123
397.33554 306.76639 1669 121 118 127
400.25711 306.76639 1669 117 122 134
403.17868 306.76639 1669 122 116 140
409.02185 306.76639 1669 129 129 152
411.94342 306.76639 1669 130 137 153
414.86502 306.76639 1669 130 137 153
417.78659 306.76639 1669 134 126 154
420.70819 306.76639 1669 138 139 154
423.62976 306.76639 1669 140 134 155
426.55133 306.76639 1669 142 142 154
429.47293 306.76639 1669 142 128 153
435.3161 306.76639 1669 147 142 150
382.7276 309.68796 1669 135 131 129
385.64917 309.68796 1669 135 131 129
388.57077 309.68796 1669 135 133 131
391.49234 309.68796 1669 140 132 134
394.41391 309.68796 1669 145 141 139
397.33554 309.68796 1669 148 146 145
400.25711 309.68796 1669 151 154 156
403.17868 309.68796 1669 159 158 167
406.10028 309.68796 1669 166 178 175
409.02185 309.68796 1669 170 176 184
411.94342 309.68796 1669 174 189 190
414.86502 309.68796 1669 174 189 190
417.78659 309.68796 1669 177 181 196
420.70819 309.68796 1669 179 195 197
423.62976 309.68796 1669 179 183 198
426.55133 309.68796 1669 179 194 194
382.7276 312.60959 1669 144 145 132
385.64917 312.60959 1669 144 145 132
388.57077 312.60959 1669 144 144 135
391.49234 312.60959 1669 154 150 138
394.41391 312.60959 1669 165 156 147
397.33554 312.60959 1669 175 172 156
400.25711 312.60959 1669 186 171 165
403.17868 312.60959 1669 195 185 175
406.10028 312.60959 1669 205 191 183
409.02185 312.60959 1669 212 208 191
411.94342 312.60959 1669 219 204 196
414.86502 312.60959 1669 219 204 196
376.88443 315.53116 1669 134 136 129
379.806 315.53116 1669 135 143 132
382.7276 315.53116 1669 136 139 135
385.64917 315.53116 1669 136 139 135
388.57077 315.53116 1669 136 151 139
391.49234 315.53116 1669 141 146 143
394.41391 315.53116 1669 146 162 155
397.33554 315.53116 1669 152 158 168
400.25711 315.53116 1669 158 173 175
403.17868 315.53116 1669 163 169 183
406.10028 315.53116 1669 168 193 191
411.94342 315.53116 1669 173 206 202
371.04123 318.45276 1669 125 122 130
373.96286 318.45276 1669 126 118 129
376.88443 318.45276 1669 126 123 127
379.806 318.45276 1669 126 118 128
382.7276 318.45276 1669 127 117 129
385.64917 318.45276 1669 127 117 129
388.57077 318.45276 1669 129 119 131
391.49234 318.45276 1669 128 123 134
397.33554 318.45276 1669 129 127 141
400.25711 318.45276 1669 131 129 147
403.17868 318.45276 1669 131 125 152
406.10028 318.45276 1669 132 131 156
411.94342 318.45276 1669 127 131 161
371.04123 321.37433 1669 104 96 128
373.96286 321.37433 1669 105 88 127
376.88443 321.37433 1669 105 98 126
379.806 321.37433 1669 106 89 125
385.64917 321.37433 1669 107 97 124
400.25711 321.37433 1669 110 91 118
406.10028 321.37433 1669 112 89 122
411.94342 321.37433 1669 111 87 120
414.86502 321.37433 1669 111 87 120
371.04123 324.2959 1669 104 96 128
373.96286 324.2959 1669 105 88 127
376.88443 324.2959 1669 105 98 126
379.806 324.2959 1669 106 89 125
385.64917 324.2959 1669 107 97 124
406.10028 324.2959 1669 112 89 122
411.94342 324.2959 1669 111 87 120
414.86502 324.2959 1669 111 87 120
385.64917 327.2175 1669 87 95 129
406.10028 327.2175 1669 92 94 132
443.27386 305.30121 1677 134 112 112
434.4671 308.23682 1677 143 141 151
440.33829 308.23682 1677 151 145 148
443.27386 308.23682 1677 151 145 148
431.53152 311.17239 1677 178 177 191
434.4671 311.17239 1677 177 181 191
437.40271 311.17239 1677 178 177 192
440.33829 311.17239 1677 179 183 185
419.78915 314.108 1677 220 216 201
422.72476 314.108 1677 221 208 199
425.66034 314.108 1677 218 212 197
428.59592 314.108 1677 216 202 190
431.53152 314.108 1677 214 208 183
437.40271 314.108 1677 210 204 179
410.98242 317.04358 1677 170 181 199
416.85361 317.04358 1677 173 206 202
419.78915 317.04358 1677 173 186 206
422.72476 317.04358 1677 173 209 201
425.66034 317.04358 1677 164 179 197
428.59592 317.04358 1677 155 197 186
396.30444 319.97916 1677 128 123 137
410.98242 319.97916 1677 129 117 160
416.85361 319.97916 1677 127 131 161
419.78915 319.97916 1677 126 114 162
422.72476 319.97916 1677 125 127 162
425.66034 319.97916 1677 109 98 162
384.5621 322.91476 1677 107 97 124
390.43329 322.91476 1677 108 88 124
393.36887 322.91476 1677 109 96 125
396.30444 322.91476 1677 110 81 120
399.24008 322.91476 1677 110 96 115
405.11127 322.91476 1677 111 99 122
410.98242 322.91476 1677 111 96 122
419.78915 322.91476 1677 110 96 118
384.5621 325.85034 1677 107 97 124
390.43329 325.85034 1677 108 88 124
393.36887 325.85034 1677 109 96 125
396.30444 325.85034 1677 110 81 120
399.24008 325.85034 1677 110 96 115
402.17566 325.85034 1677 110 91 118
405.11127 325.85034 1677 111 99 122
410.98242 325.85034 1677 111 96 122
419.78915 325.85034 1677 110 96 118
399.24008 328.78592 1677 90 86 128
402.17566 328.78592 1677 89 91 130
405.11127 328.78592 1677 90 94 133
445.65277 312.84238 1686 179 183 185
436.79874 315.79373 1686 212 194 181
442.70145 315.79373 1686 208 186 172
445.65277 315.79373 1686 208 186 172
433.84741 318.74509 1686 151 167 176
436.79874 318.74509 1686 148 186 171
439.75009 318.74509 1686 149 157 167
442.70145 318.74509 1686 149 162 160
430.89609 321.69641 1686 94 117 156
427.94476 324.64777 1686 102 94 128
459.62878 308.39609 1694 135 123 127
462.59412 308.39609 1694 134 123 130
465.55951 308.39609 1694 134 122 130
468.52487 308.39609 1694 135 129 131
471.4902 308.39609 1694 137 132 138
453.69809 311.36142 1694 155 143 144
456.66342 311.36142 1694 154 145 142
459.62878 311.36142 1694 153 144 141
462.59412 311.36142 1694 153 146 140
450.73273 314.32678 1694 178 173 178
453.69809 314.32678 1694 177 171 169
456.66342 314.32678 1694 172 165 161
450.73273 317.29214 1694 203 197 166
447.7674 320.25748 1694 149 162 160
450.73273 320.25748 1694 145 142 154
480.38626 320.25748 1694 115 95 140
483.35159 320.25748 1694 126 128 148
486.31696 320.25748 1694 137 156 168
435.90604 323.22284 1694 89 79 151
438.87137 323.22284 1694 85 108 150
441.8367 323.22284 1694 88 78 150
444.80203 323.22284 1694 91 103 148
432.94067 326.18817 1694 95 95 127
435.90604 326.18817 1694 92 90 126
438.87137 326.18817 1694 90 91 130
497.55164 291.97641 1702 109 98 97
500.53101 291.97641 1702 118 111 107
503.51035 291.97641 1702 118 124 118
494.57233 294.95575 1702 117 104 104
497.55164 294.95575 1702 119 112 115
500.53101 294.95575 1702 122 120 124
488.61362 297.93509 1702 118 109 109
491.59296 297.93509 1702 126 114 114
488.61362 300.91446 1702 118 109 109
491.59296 300.91446 1702 126 114 114
485.63425 303.8938 1702 140 127 122
488.61362 303.8938 1702 141 138 128
491.59296 303.8938 1702 139 132 135
494.57233 303.8938 1702 137 132 135
497.55164 303.8938 1702 128 129 135
479.67557 306.87317 1702 147 135 123
482.65491 306.87317 1702 166 140 129
485.63425 306.87317 1702 165 167 135
488.61362 306.87317 1702 165 149 140
491.59296 306.87317 1702 152 147 146
476.6962 309.85251 1702 147 139 146
479.67557 309.85251 1702 147 139 146
482.65491 309.85251 1702 157 149 147
485.63425 309.85251 1702 156 149 148
488.61362 309.85251 1702 156 144 152
491.59296 309.85251 1702 138 139 157
467.75815 312.83185 1702 153 142 136
470.73752 312.83185 1702 150 144 132
473.71686 312.83185 1702 147 140 137
476.6962 312.83185 1702 147 140 142
479.67557 312.83185 1702 147 140 142
482.65491 312.83185 1702 148 140 141
485.63425 312.83185 1702 148 138 140
488.61362 312.83185 1702 148 128 138
491.59296 312.83185 1702 124 126 137
461.79941 315.81122 1702 167 163 156
464.77875 315.81122 1702 162 156 151
467.75815 315.81122 1702 158 156 142
470.73752 315.81122 1702 148 145 133
473.71686 315.81122 1702 138 146 136
476.6962 315.81122 1702 130 131 139
479.67557 315.81122 1702 130 131 139
482.65491 315.81122 1702 123 133 135
485.63425 315.81122 1702 121 116 132
488.61362 315.81122 1702 119 105 125
491.59296 315.81122 1702 127 130 118
494.57233 315.81122 1702 136 145 150
455.8407 318.79059 1702 199 171 157
458.82004 318.79059 1702 190 183 149
461.79941 318.79059 1702 181 152 145
464.77875 318.79059 1702 172 159 142
467.75815 318.79059 1702 163 137 135
470.73752 318.79059 1702 146 136 129
473.71686 318.79059 1702 129 120 132
476.6962 318.79059 1702 114 107 136
479.67557 318.79059 1702 114 107 136
482.65491 318.79059 1702 99 106 138
485.63425 318.79059 1702 94 91 140
488.61362 318.79059 1702 90 124 146
455.8407 321.76993 1702 141 134 146
458.82004 321.76993 1702 138 128 138
461.79941 321.76993 1702 135 106 135
464.77875 321.76993 1702 131 114 133
467.75815 321.76993 1702 127 98 129
470.73752 321.76993 1702 118 105 126
473.71686 321.76993 1702 108 93 129
476.6962 321.76993 1702 111 100 133
449.88199 324.7493 1702 91 103 148
452.86136 324.7493 1702 87 78 146
455.8407 324.7493 1702 83 101 143
458.82004 324.7493 1702 86 90 139
461.79941 324.7493 1702 89 97 137
464.77875 324.7493 1702 90 96 135
467.75815 324.7493 1702 92 97 135
470.73752 324.7493 1702 90 94 135
473.71686 324.7493 1702 88 107 144
443.92331 327.72864 1702 88 78 150
446.90265 327.72864 1702 91 103 148
449.88199 327.72864 1702 91 103 148
497.18753 302.50565 1711 135 119 119
88.444008 130.89714 2020.9999 165 159 154
91.981766 130.89714 2020.9999 157 154 156
95.519539 130.89714 2020.9999 157 154 156
84.90625 134.43489 2020.9999 164 159 152
88.444008 134.43489 2020.9999 164 159 155
91.981766 134.43489 2020.9999 156 157 158
95.519539 134.43489 2020.9999 156 157 158
99.057297 134.43489 2020.9999 148 149 147
84.90625 137.97266 2020.9999 162 161 151
88.444008 137.97266 2020.9999 166 163 155
91.981766 137.97266 2020.9999 160 160 160
95.519539 137.97266 2020.9999 160 160 160
99.057297 137.97266 2020.9999 155 157 146
88.444008 141.51042 2020.9999 168 164 159
91.981766 141.51042 2020.9999 165 164 159
95.519539 141.51042 2020.9999 165 164 159
78.292862 138.79189 2033 142 131 122
81.851631 138.79189 2033 159 163 136
81.851631 142.35068 2033 154 150 145
85.4104 142.35068 2033 161 162 159
81.851631 145.90942 2033 154 145 154
85.4104 145.90942 2033 162 159 168
79.217125 298.86462 2057 144 130 113
82.817902 298.86462 2057 142 128 117
75.616356 302.46542 2057 145 130 116
79.217125 302.46542 2057 144 130 113
82.817902 302.46542 2057 142 128 117
79.217125 306.06619 2057 136 121 103
82.817902 306.06619 2057 135 120 106
-940.55951 973.70691 2367 152 156 145
-936.41602 973.70691 2367 142 143 139
-936.41602 977.8504 2367 142 143 139
-932.27258 977.8504 2367 131 129 125
-940.55951 981.99377 2367 151 153 145
-936.41602 981.99377 2367 139 143 138
-943.14148 972.35376 2384 140 142 147
-938.96826 972.35376 2384 130 120 132
-934.7951 972.35376 2384 133 119 118
-930.62189 972.35376 2384 135 127 120
-943.14148 976.52698 2384 145 144 143
-938.96826 976.52698 2384 136 127 129
-934.7951 976.52698 2384 136 116 115
-930.62189 976.52698 2384 136 123 115
-934.7951 980.70013 2384 130 123 112
-930.62189 980.70013 2384 129 131 110
-926.44873 980.70013 2384 129 131 110
-930.62189 984.87335 2384 129 131 110
-949.47131 865.4472 2400 140 152 149
-945.27008 865.4472 2400 135 147 136
-949.47131 869.64844 2400 141 153 148
-945.27008 869.64844 2400 136 139 136
-953.67249 907.45929 2400 152 157 146
-949.47131 907.45929 2400 142 155 147
-953.67249 911.66052 2400 152 153 146
-949.47131 911.66052 2400 145 151 151
-949.47131 915.86169 2400 143 146 157
-953.67249 920.06293 2400 147 153 151
-949.47131 920.06293 2400 141 147 155
-945.27008 941.06891 2400 135 132 134
-941.06891 941.06891 2400 132 124 121
-941.06891 945.27008 2400 129 117 121
-949.47131 949.47131 2400 139 146 148
-945.27008 949.47131 2400 132 131 134
-941.06891 949.47131 2400 129 117 121
-936.86768 949.47131 2400 129 117 121
-949.47131 953.67249 2400 139 144 149
-945.27008 953.67249 2400 129 129 135
-941.06891 953.67249 2400 129 123 122
-936.86768 953.67249 2400 130 131 124
-945.27008 957.87366 2400 126 128 135
-941.06891 957.87366 2400 129 118 122
-936.86768 957.87366 2400 133 127 124
-949.47131 962.07489 2400 139 141 147
-945.27008 962.07489 2400 127 122 134
-941.06891 962.07489 2400 133 120 122
-936.86768 962.07489 2400 139 124 125
-949.47131 966.27606 2400 140 148 149
-945.27008 966.27606 2400 128 128 133
-941.06891 966.27606 2400 136 116 117
-936.86768 966.27606 2400 145 120 123
-949.47131 970.47729 2400 138 144 151
-945.27008 970.47729 2400 126 127 132
-941.06891 970.47729 2400 133 120 113
-936.86768 970.47729 2400 140 124 120
-956.19666 795.42029 2417 141 151 158
-951.96576 795.42029 2417 141 151 158
-956.19666 799.65118 2417 141 151 158
-951.96576 799.65118 2417 141 151 158
-947.7348 799.65118 2417 141 146 146
-943.50378 799.65118 2417 132 134 135
-939.27289 799.65118 2417 123 117 137
-935.04193 799.65118 2417 155 149 139
-956.19666 803.8822 2417 141 154 156
-951.96576 803.8822 2417 139 146 144
-947.7348 803.8822 2417 139 146 144
-943.50378 803.8822 2417 129 137 132
-939.27289 803.8822 2417 120 130 134
-935.04193 803.8822 2417 150 150 137
-956.19666 808.11316 2417 143 150 154
-951.96576 808.11316 2417 143 150 141
-947.7348 808.11316 2417 143 150 141
-943.50378 808.11316 2417 132 134 129
-939.27289 808.11316 2417 121 116 132
-935.04193 808.11316 2417 149 151 135
-930.81091 808.11316 2417 178 185 120
-956.19666 812.34406 2417 145 150 158
-951.96576 812.34406 2417 147 143 146
-947.7348 812.34406 2417 147 143 146
-943.50378 812.34406 2417 135 133 134
-939.27289 812.34406 2417 123 129 138
-935.04193 812.34406 2417 149 154 143
-930.81091 812.34406 2417 176 156 121
-956.19666 816.57507 2417 146 149 163
-951.96576 816.57507 2417 147 140 151
-947.7348 816.57507 2417 147 140 151
-943.50378 816.57507 2417 135 128 139
-939.27289 816.57507 2417 123 116 145
-935.04193 816.57507 2417 148 152 151
-930.81091 816.57507 2417 173 185 123
-951.96576 820.80603 2417 147 141 147
-947.7348 820.80603 2417 147 141 147
-943.50378 820.80603 2417 135 126 136
-939.27289 820.80603 2417 124 128 146
-935.04193 820.80603 2417 147 155 156
-951.96576 825.03693 2417 143 149 144
-947.7348 825.03693 2417 143 149 144
-943.50378 825.03693 2417 133 130 134
-939.27289 825.03693 2417 123 115 147
-951.96576 829.26794 2417 140 145 142
-947.7348 829.26794 2417 140 145 142
-943.50378 829.26794 2417 131 132 131
-939.27289 829.26794 2417 123 130 145
-935.04193 829.26794 2417 147 158 160
-951.96576 833.4989 2417 141 148 141
-947.7348 833.4989 2417 141 148 141
-943.50378 833.4989 2417 131 132 128
-939.27289 833.4989 2417 121 117 143
-935.04193 833.4989 2417 145 153 159
-930.81091 833.4989 2417 169 173 122
-947.7348 837.7298 2417 141 148 141
-943.50378 837.7298 2417 131 132 128
-939.27289 837.7298 2417 121 117 143
-935.04193 837.7298 2417 145 153 159
-930.81091 837.7298 2417 169 173 122
-947.7348 841.96082 2417 142 144 141
-943.50378 841.96082 2417 131 133 130
-939.27289 841.96082 2417 120 133 144
-935.04193 841.96082 2417 143 165 159
-930.81091 841.96082 2417 167 146 122
-947.7348 846.19177 2417 141 143 141
-943.50378 846.19177 2417 131 130 132
-939.27289 846.19177 2417 122 119 145
-935.04193 846.19177 2417 144 153 159
-930.81091 846.19177 2417 165 164 121
-926.58002 846.19177 2417 116 96 84
-951.96576 850.42267 2417 140 142 140
-947.7348 850.42267 2417 140 142 140
-943.50378 850.42267 2417 132 128 130
-939.27289 850.42267 2417 125 134 141
-935.04193 850.42267 2417 144 167 153
-930.81091 850.42267 2417 164 141 113
-951.96576 854.65369 2417 138 145 140
-947.7348 854.65369 2417 138 145 140
-943.50378 854.65369 2417 132 130 128
-939.27289 854.65369 2417 126 123 137
-935.04193 854.65369 2417 142 153 147
-930.81091 854.65369 2417 158 161 104
-926.58002 854.65369 2417 114 94 62
-922.34906 854.65369 2417 70 72 71
-918.11804 854.65369 2417 72 68 80
-913.88715 854.65369 2417 74 67 75
-909.65619 854.65369 2417 74 67 75
-951.96576 858.88464 2417 137 141 141
-947.7348 858.88464 2417 137 141 141
-943.50378 858.88464 2417 132 127 128
-939.27289 858.88464 2417 128 133 141
-935.04193 858.88464 2417 140 162 155
-930.81091 858.88464 2417 152 136 111
-926.58002 858.88464 2417 110 73 67
-922.34906 858.88464 2417 69 70 73
-918.11804 858.88464 2417 71 67 78
-913.88715 858.88464 2417 73 67 73
-909.65619 858.88464 2417 73 67 73
-905.42517 858.88464 2417 98 64 67
-901.19415 858.88464 2417 124 130 127
-896.96326 858.88464 2417 154 195 186
-947.7348 863.11554 2417 135 137 141
-943.50378 863.11554 2417 129 129 128
-939.27289 863.11554 2417 124 120 146
-935.04193 863.11554 2417 135 149 164
-930.81091 863.11554 2417 146 151 118
-926.58002 863.11554 2417 107 90 73
-922.34906 863.11554 2417 67 69 75
-918.11804 863.11554 2417 68 68 77
-913.88715 863.11554 2417 70 70 70
-905.42517 863.11554 2417 98 86 64
-901.19415 863.11554 2417 127 138 123
-896.96326 863.11554 2417 155 177 183
-892.73224 863.11554 2417 183 191 187
-947.7348 867.3465 2417 134 143 138
-943.50378 867.3465 2417 127 133 125
-939.27289 867.3465 2417 120 134 143
-935.04193 867.3465 2417 130 163 162
-930.81091 867.3465 2417 141 131 118
-926.58002 867.3465 2417 103 69 74
-922.34906 867.3465 2417 66 69 75
