ply
format ascii 1.0
comment PCL generated
element vertex 242
property float x
property float y
property float z
property uchar red
property uchar green
property uchar blue
element camera 1
property float view_px
property float view_py
property float view_pz
property float x_axisx
property float x_axisy
property float x_axisz
property float y_axisx
property float y_axisy
property float y_axisz
property float z_axisx
property float z_axisy
property float z_axisz
property float focal
property float scalex
property float scaley
property float centerx
property float centery
property int viewportx
property int viewporty
property float k1
property float k2
end_header
-29.44166 133.82573 1529 52 37 54
-26.765148 133.82573 1529 46 25 53
-34.794689 136.50226 1529 57 48 60
-29.44166 136.50226 1529 52 34 57
-26.765148 136.50226 1529 47 49 60
-37.471207 139.17876 1529 65 63 62
-29.44166 139.17876 1529 58 54 60
-37.471207 141.85527 1529 67 70 53
-34.794689 141.85527 1529 65 63 51
-32.118176 141.85527 1529 64 70 50
-29.44166 141.85527 1529 64 70 50
-26.765148 141.85527 1529 63 63 52
0 141.85527 1529 68 67 50
5.3530293 141.85527 1529 66 76 69
-32.118176 144.5318 1529 93 73 41
-29.44166 144.5318 1529 93 73 41
0 144.5318 1529 95 76 31
2.6765146 144.5318 1529 94 50 50
5.3530293 144.5318 1529 93 72 69
2.6765146 147.2083 1529 120 111 90
0 149.88483 1529 122 122 80
2.6765146 149.88483 1529 120 111 90
-34.953987 134.43842 1536 59 45 59
-13.443841 139.81595 1536 71 81 84
-10.755073 139.81595 1536 60 70 77
-8.0663052 139.81595 1536 75 69 70
-5.3775363 139.81595 1536 90 61 69
-21.510145 142.5047 1536 64 65 64
-18.821377 142.5047 1536 68 72 75
-13.443841 142.5047 1536 71 77 78
-10.755073 142.5047 1536 71 66 70
-8.0663052 142.5047 1536 69 73 62
-5.3775363 142.5047 1536 68 66 56
-2.6887681 142.5047 1536 68 66 56
-40.33152 145.19348 1536 97 46 57
-24.198912 145.19348 1536 90 76 33
-21.510145 145.19348 1536 86 53 52
-18.821377 145.19348 1536 77 65 71
-13.443841 145.19348 1536 80 65 72
-10.755073 145.19348 1536 92 46 63
-5.3775363 145.19348 1536 96 65 42
-2.6887681 145.19348 1536 96 65 42
-40.33152 147.88225 1536 125 100 65
-34.953987 147.88225 1536 119 99 50
-32.265221 147.88225 1536 122 107 48
-29.576448 147.88225 1536 122 107 48
-26.887682 147.88225 1536 126 100 51
-24.198912 147.88225 1536 117 121 54
-13.443841 147.88225 1536 88 78 65
-10.755073 147.88225 1536 113 96 80
-8.0663052 147.88225 1536 119 125 95
-5.3775363 147.88225 1536 125 115 87
-2.6887681 147.88225 1536 125 115 87
0 147.88225 1536 122 122 80
5.3775363 147.88225 1536 121 123 100
8.0663052 147.88225 1536 122 105 99
-43.02029 150.57101 1536 106 113 77
-40.33152 150.57101 1536 125 100 65
-34.953987 150.57101 1536 119 99 50
-29.576448 150.57101 1536 122 107 48
-26.887682 150.57101 1536 126 100 51
-24.198912 150.57101 1536 117 121 54
-18.821377 150.57101 1536 86 73 57
-16.13261 150.57101 1536 64 68 61
-13.443841 150.57101 1536 88 78 65
-10.755073 150.57101 1536 113 96 80
-8.0663052 150.57101 1536 119 125 95
-5.3775363 150.57101 1536 125 115 87
-2.6887681 150.57101 1536 125 115 87
5.3775363 150.57101 1536 121 123 100
8.0663052 150.57101 1536 122 105 99
-40.33152 153.25978 1536 116 132 73
-37.642754 153.25978 1536 114 114 62
-34.953987 153.25978 1536 113 125 58
-29.576448 153.25978 1536 114 109 55
-26.887682 153.25978 1536 116 111 65
-24.198912 153.25978 1536 108 110 75
-21.510145 153.25978 1536 100 112 59
-18.821377 153.25978 1536 85 78 43
-16.13261 153.25978 1536 70 61 51
-13.443841 153.25978 1536 88 86 59
-10.755073 153.25978 1536 105 137 97
-8.0663052 153.25978 1536 116 131 136
-5.3775363 153.25978 1536 127 149 132
-2.6887681 153.25978 1536 127 149 132
5.3775363 153.25978 1536 126 136 132
8.0663052 153.25978 1536 126 151 122
-37.642754 155.94855 1536 107 89 72
-34.953987 155.94855 1536 107 95 69
-32.265221 155.94855 1536 107 94 67
-29.576448 155.94855 1536 107 94 67
-26.887682 155.94855 1536 107 95 71
-24.198912 155.94855 1536 100 98 76
-21.510145 155.94855 1536 93 88 69
-18.821377 155.94855 1536 85 68 62
-16.13261 155.94855 1536 77 68 64
-10.755073 155.94855 1536 98 99 85
-8.0663052 155.94855 1536 113 116 104
-5.3775363 155.94855 1536 129 113 103
13.496356 121.4672 1542 99 115 110
16.195627 121.4672 1542 110 129 148
18.894897 121.4672 1542 122 145 153
21.594168 121.4672 1542 122 145 153
24.293442 121.4672 1542 120 123 158
10.797084 124.16647 1542 86 85 78
13.496356 124.16647 1542 92 112 119
16.195627 124.16647 1542 106 120 160
18.894897 124.16647 1542 121 126 137
21.594168 124.16647 1542 121 126 137
24.293442 124.16647 1542 116 95 113
10.797084 126.86575 1542 86 85 78
13.496356 126.86575 1542 92 112 119
16.195627 126.86575 1542 106 120 160
18.894897 126.86575 1542 121 126 137
21.594168 126.86575 1542 121 126 137
24.293442 126.86575 1542 116 95 113
10.797084 129.56502 1542 93 99 85
13.496356 129.56502 1542 107 129 129
16.195627 129.56502 1542 123 144 173
18.894897 129.56502 1542 139 146 121
21.594168 129.56502 1542 139 146 121
10.797084 132.26428 1542 100 92 81
13.496356 132.26428 1542 123 129 122
16.195627 132.26428 1542 140 184 164
-18.894897 134.96356 1542 87 75 38
10.797084 134.96356 1542 98 89 78
13.496356 134.96356 1542 120 111 116
16.195627 134.96356 1542 132 142 155
-21.594168 137.66283 1542 112 84 61
-18.894897 137.66283 1542 103 113 58
-16.195627 137.66283 1542 95 92 66
13.496356 137.66283 1542 118 116 109
16.195627 137.66283 1542 125 127 137
-21.594168 140.36211 1542 88 69 77
-18.894897 140.36211 1542 85 87 79
-16.195627 140.36211 1542 83 94 81
13.496356 140.36211 1542 128 144 102
16.195627 140.36211 1542 129 130 119
-16.195627 143.06137 1542 72 76 76
13.496356 143.06137 1542 139 115 98
13.496356 145.76065 1542 110 111 94
10.797084 148.45992 1542 101 107 98
13.496356 148.45992 1542 81 97 101
10.797084 151.15918 1542 101 107 98
13.496356 151.15918 1542 81 97 101
10.797084 153.85846 1542 104 106 112
13.496356 153.85846 1542 82 78 108
-54.230495 124.73013 1549 75 66 113
-51.518967 124.73013 1549 78 100 116
-48.807442 124.73013 1549 87 108 120
21.692198 132.86472 1549 157 143 127
24.403721 132.86472 1549 132 95 91
18.980673 135.57623 1549 144 148 134
21.692198 135.57623 1549 144 148 134
24.403721 135.57623 1549 136 129 113
18.980673 138.28775 1549 132 137 130
21.692198 138.28775 1549 132 137 130
24.403721 138.28775 1549 140 146 123
27.115248 138.28775 1549 149 140 122
18.980673 140.99927 1549 130 130 126
21.692198 140.99927 1549 130 130 126
27.115248 140.99927 1549 149 150 127
18.980673 143.7108 1549 129 132 120
21.692198 143.7108 1549 129 132 120
24.403721 143.7108 1549 139 148 129
27.115248 143.7108 1549 150 145 126
16.269148 146.42235 1549 123 114 104
18.980673 146.42235 1549 136 134 115
21.692198 146.42235 1549 136 134 115
24.403721 146.42235 1549 144 146 126
27.115248 146.42235 1549 152 152 124
16.269148 149.13387 1549 112 92 104
18.980673 149.13387 1549 144 130 115
21.692198 149.13387 1549 144 130 115
24.403721 149.13387 1549 149 151 126
27.115248 149.13387 1549 154 146 123
-56.94202 151.84538 1549 134 144 134
-51.518967 151.84538 1549 122 112 106
-48.807442 151.84538 1549 105 82 79
16.269148 151.84538 1549 112 92 104
18.980673 151.84538 1549 144 130 115
21.692198 151.84538 1549 144 130 115
27.115248 151.84538 1549 154 146 123
-56.94202 154.5569 1549 137 140 129
-54.230495 154.5569 1549 137 140 129
-51.518967 154.5569 1549 127 121 112
-48.807442 154.5569 1549 105 90 96
16.269148 154.5569 1549 115 110 104
18.980673 154.5569 1549 149 145 115
21.692198 154.5569 1549 149 145 115
24.403721 154.5569 1549 149 152 127
27.115248 154.5569 1549 149 156 122
-56.94202 157.26842 1549 140 146 129
-54.230495 157.26842 1549 140 146 129
-51.518967 157.26842 1549 133 122 112
-48.807442 157.26842 1549 105 93 95
18.980673 157.26842 1549 154 144 119
21.692198 157.26842 1549 154 144 119
24.403721 157.26842 1549 149 156 130
-57.199341 130.74136 1556 90 89 91
-54.475563 130.74136 1556 90 89 91
-51.751781 130.74136 1556 93 96 107
-49.028004 130.74136 1556 96 105 124
-43.580452 130.74136 1556 91 86 79
-59.923115 133.46513 1556 102 103 94
-57.199341 133.46513 1556 105 99 110
-54.475563 133.46513 1556 105 99 110
-51.751781 133.46513 1556 109 105 103
-49.028004 133.46513 1556 106 117 97
-43.580452 133.46513 1556 91 80 75
-59.923115 136.1889 1556 121 131 98
-57.199341 136.1889 1556 114 120 129
-54.475563 136.1889 1556 114 120 129
-51.751781 136.1889 1556 107 108 99
-49.028004 136.1889 1556 95 90 70
-46.30423 136.1889 1556 84 69 71
-59.923115 138.91267 1556 141 127 103
-57.199341 138.91267 1556 123 145 134
-54.475563 138.91267 1556 123 145 134
-51.751781 138.91267 1556 105 108 100
-49.028004 138.91267 1556 84 69 67
-62.646896 141.63646 1556 139 111 77
-59.923115 141.63646 1556 144 148 108
-57.199341 141.63646 1556 124 137 139
-54.475563 141.63646 1556 124 137 139
-51.751781 141.63646 1556 104 110 101
-49.028004 141.63646 1556 86 78 64
-62.646896 144.36023 1556 141 76 74
-59.923115 144.36023 1556 147 129 106
-57.199341 144.36023 1556 125 147 139
-54.475563 144.36023 1556 125 147 139
-51.751781 144.36023 1556 104 105 101
-49.028004 144.36023 1556 87 62 63
-62.646896 147.08403 1556 138 109 72
-59.923115 147.08403 1556 146 147 105
-57.199341 147.08403 1556 129 135 139
-54.475563 147.08403 1556 129 135 139
-51.751781 147.08403 1556 113 104 100
-62.646896 149.8078 1556 135 80 74
-59.923115 149.8078 1556 146 130 104
-57.199341 149.8078 1556 134 144 134
-54.475563 149.8078 1556 134 144 134
0 0 0 1 0 0 0 1 0 0 0 1 0 0 0 0 0 242 1 0 0
