58.317329 -1.230018 124.000000
58.823807 -1.248106 124.000000
61.906086 -1.432609 124.000000
62.513855 -1.410903 124.000000
63.562996 -1.157664 124.000000
64.087555 -1.302372 124.000000
63.490639 -0.651186 124.000000
64.033295 -0.651186 124.000000
64.383926 0.567701 124.000008
65.227127 0.596920 124.000000
65.824051 0.705451 124.000000
63.743877 1.664142 124.000000
64.304619 1.356637 124.000000
65.552727 1.193841 124.000000
65.842148 1.157664 124.000000
57.955551 2.604744 124.000000
62.839455 2.604744 124.000000
63.816227 1.953558 124.000000
64.033295 1.953558 124.000000
57.521427 2.821806 124.000000
58.172619 2.930337 124.000000
59.171101 3.212517 124.000000
59.711788 3.236197 124.000000
60.415596 3.219753 124.000000
61.935024 3.400638 124.000000
62.730919 3.216464 124.000000
63.273575 3.472992 124.000000
59.778877 4.037353 124.000008
60.637829 4.062160 124.000008
61.779186 4.107481 124.000008
62.622387 4.015647 124.000000
63.338696 4.059059 124.000000
59.185577 5.137135 124.000000
59.800583 4.883894 124.000000
60.741188 4.829630 124.000000
61.645611 4.883895 124.000000
62.622387 4.883895 124.000000
63.432198 4.908940 124.000008
58.932339 5.860675 124.000000
59.800587 5.860674 124.000000
60.820770 5.687025 124.000000
61.645603 5.860675 124.000000
62.622387 5.860675 124.000000
63.473503 5.883523 124.000000
64.327873 6.015718 124.000008
65.118599 6.222444 124.000000
58.129208 7.119634 124.000000
58.932343 6.837452 124.000000
59.793350 6.859159 124.000008
60.718170 6.945984 124.000000
61.645611 6.837453 124.000000
62.622391 6.837453 124.000000
63.490635 6.837452 124.000000
64.358879 6.837453 124.000000
65.227135 6.837452 124.000000
65.856621 6.902571 124.000000
57.449074 7.452463 124.000000
58.064087 7.488639 124.000000
58.932335 7.488640 124.000000
59.800583 7.380108 124.000000
60.994423 7.814232 124.000000
61.699875 7.665003 124.000000
62.622387 7.705701 124.000000
63.490635 7.705702 124.000000
64.300446 7.647261 124.000008
65.227127 7.705702 124.000000
65.769791 7.488639 124.000000
61.775848 8.617362 124.000000
62.622391 8.573948 124.000000
63.490635 8.573949 124.000000
64.358887 8.573949 124.000000
65.180618 8.558445 124.000008
66.312439 8.899543 124.000000
60.994423 9.116604 124.000000
61.645607 9.116604 124.000000
62.758053 9.306534 124.000000
63.490635 9.442198 124.000000
64.358887 9.442198 124.000000
65.118599 9.550728 124.000000
66.203918 9.550729 124.000000
66.638039 9.442198 124.000000
62.947983 10.310445 124.000000
63.490635 10.310444 124.000000
64.358887 10.310445 124.000000
65.140312 10.397270 124.000000
66.070335 10.385582 124.000008
66.724861 10.462389 124.000000
62.947983 11.178694 124.000000
63.490635 11.178694 124.000000
64.358879 11.178694 124.000000
65.138336 11.228025 124.000000
66.117088 11.185930 124.000008
66.833397 11.200399 124.000000
62.947987 12.155473 124.000000
63.490639 12.155474 124.000000
64.358887 12.155473 124.000000
65.227135 12.155472 124.000000
66.101097 12.144048 124.000000
66.855095 11.845386 124.000008
63.647408 13.047838 124.000000
64.351654 13.110544 124.000008
65.218788 13.057115 124.000008
66.065773 13.003987 124.000000
63.816227 13.674907 124.000000
64.434021 13.975453 124.000008
65.152000 14.008849 124.000008
66.059204 14.072853 124.000000
64.467415 14.868748 124.000000
65.118607 14.868748 124.000000
66.030266 14.847041 124.000000
64.447685 15.707397 124.000000
65.056580 15.659473 124.000008
64.250351 16.279650 124.000000
56.563034 -1.094063 125.000000
57.219467 -1.094063 125.000000
58.094723 -1.203469 125.000000
58.969971 -1.094063 125.000000
59.860851 -1.187839 125.000008
60.750313 -1.292983 125.000000
61.595730 -1.312875 125.000000
62.405331 -1.137825 125.000000
63.528564 -1.312875 125.000000
64.494987 -1.422281 125.000000
65.315529 -1.312875 125.000000
66.190773 -1.312875 125.000000
67.036194 -1.332767 125.000000
67.941284 -1.356638 125.000000
68.488312 -1.531688 125.000000
56.628674 -0.612675 125.000000
57.219463 -0.547031 125.000000
58.094711 -0.547031 125.000000
58.969963 -0.547031 125.000000
59.845230 -0.547031 125.000000
60.720482 -0.547031 125.000000
61.595730 -0.547031 125.000000
62.470974 -0.547031 125.000000
63.314964 -0.500143 125.000008
64.580948 -0.406366 125.000008
65.315529 -0.547031 125.000000
66.190773 -0.547031 125.000000
66.956619 -0.547031 125.000000
67.941284 -0.437625 125.000000
56.672440 0.437625 125.000000
57.219463 0.437625 125.000000
58.094715 0.437625 125.000000
58.969971 0.437625 125.000000
59.845226 0.437625 125.000000
60.720470 0.437625 125.000000
61.595730 0.437625 125.000000
62.413052 0.424754 125.000000
63.692673 0.364688 125.000000
64.389229 0.379275 125.000008
65.362419 0.187554 125.000008
66.182358 0.319803 125.000008
67.066032 0.437625 125.000000
67.921974 0.501982 125.000000
56.672440 1.641094 125.000000
57.219463 1.422281 125.000000
58.094711 1.422281 125.000000
58.969963 1.422281 125.000000
59.845230 1.422281 125.000000
60.720478 1.422281 125.000000
61.595730 1.422281 125.000000
62.470974 1.422281 125.000000
63.467136 1.439556 125.000000
64.470123 1.312875 125.000000
65.346786 1.469170 125.000008
66.160942 1.531687 125.000000
67.097282 1.375393 125.000008
67.941284 1.422281 125.000000
68.734474 1.613742 125.000000
69.538612 1.662975 125.000000
56.628674 2.363175 125.000000
57.219463 2.297531 125.000000
58.072834 2.275650 125.000008
58.969963 2.297531 125.000000
59.845230 2.297531 125.000000
60.720478 2.297531 125.000000
61.595730 2.297531 125.000000
62.470978 2.297531 125.000000
63.467781 2.261062 125.000000
64.440285 2.344420 125.000008
65.315529 2.297531 125.000000
66.190773 2.297531 125.000000
67.257492 2.215477 125.000000
67.941284 2.297531 125.000000
68.816528 2.297531 125.000000
69.582382 2.297531 125.000000
56.628674 3.150900 125.000000
57.219460 3.172781 125.000000
58.052639 3.231692 125.000008
59.042908 3.245719 125.000000
59.735817 3.008672 125.000000
60.720470 2.990438 125.000000
61.595730 3.172781 125.000000
62.452740 3.081609 125.000000
63.592384 3.036024 125.000000
64.440285 3.172781 125.000000
65.362419 3.141523 125.000008
66.190773 3.172781 125.000000
67.073318 3.194663 125.000008
67.941284 3.172781 125.000000
68.794655 3.150900 125.000008
69.363564 2.953969 125.000000
56.628674 3.982388 125.000000
57.219463 4.048031 125.000000
58.094711 4.048031 125.000000
58.969971 4.048032 125.000000
59.626408 4.048031 125.000000
60.611065 3.719813 125.000000
61.673874 3.844849 125.000008
62.142754 3.829219 125.000000
64.487175 4.016773 125.000008
65.337410 4.069913 125.000008
66.240509 3.998302 125.000000
67.066025 4.048031 125.000000
67.941277 4.048031 125.000000
68.663368 4.004269 125.000000
56.672440 4.813875 125.000000
57.219463 4.923281 125.000000
58.094711 4.923281 125.000000
58.969963 4.923281 125.000000
59.604530 4.770113 125.000000
60.829880 5.032688 125.000000
61.267502 5.251500 125.000000
64.549690 4.893444 125.000000
65.315529 4.923281 125.000000
65.971970 5.032688 125.000000
67.066040 4.668000 125.000000
67.953438 4.740938 125.000000
68.597717 4.595063 125.000000
56.599503 6.053813 125.000000
57.219463 5.798531 125.000000
58.094711 5.798532 125.000000
58.751156 5.798532 125.000000
60.902824 5.798532 125.000000
61.311268 5.864175 125.000000
64.549698 5.470313 125.000000
65.385147 5.689125 125.000000
66.168900 5.820413 125.000008
66.869102 5.995463 125.000000
68.925941 6.126750 125.000000
69.527679 5.962641 125.000000
56.344219 6.564375 125.000000
57.219463 6.673781 125.000000
58.094711 6.673781 125.000000
58.735527 6.626893 125.000008
60.829887 6.527906 125.000000
61.322205 6.509672 125.000000
65.643753 6.345562 125.000000
66.300186 6.433087 125.000000
67.066025 6.673782 125.000000
67.891556 6.783187 125.000000
68.707123 6.703620 125.000000
69.472977 6.673781 125.000000
56.398926 7.384922 125.000000
57.219467 7.439626 125.000000
57.839439 7.366688 125.000000
60.064034 7.658438 125.000000
60.829884 7.627179 125.000008
61.486324 7.789726 125.000000
62.361565 8.096063 125.000000
65.133194 8.023125 125.000000
66.456474 7.752215 125.000008
67.066032 7.658437 125.000000
67.941292 7.658439 125.000000
68.780067 7.694907 125.000000
69.542603 7.718114 125.000000
61.570484 8.584183 125.000008
62.361565 8.643094 125.000000
66.343948 8.664976 125.000000
67.097282 8.596206 125.000008
67.941284 8.643095 125.000000
68.816544 8.596207 125.000008
69.457352 8.596206 125.000008
62.799194 9.518344 125.000000
63.090942 9.554813 125.000000
65.534348 9.190125 125.000000
66.263710 9.481875 125.000000
67.131676 9.474582 125.000000
67.899208 9.526760 125.000008
68.707130 9.518344 125.000000
69.436508 9.591282 125.000000
65.643753 10.174782 125.000000
66.125137 10.240426 125.000000
67.131676 10.109138 125.000000
67.941284 10.393596 125.000000
68.785278 10.440483 125.000008
69.562492 10.423431 125.000000
65.643753 11.159438 125.000000
66.081375 11.159438 125.000000
67.972542 11.253216 125.000008
68.816528 11.268845 125.000000
69.582382 11.268845 125.000000
66.518997 12.472313 125.000000
67.321312 12.399376 125.000000
67.972534 12.190983 125.000008
68.794662 12.151389 125.000008
69.509445 12.107626 125.000000
67.248375 13.055814 125.000000
67.941284 13.019345 125.000000
68.740791 13.044593 125.000008
69.363564 12.691125 125.000000
65.206131 13.566376 125.000000
66.202934 13.785188 125.000000
67.066025 13.785189 125.000000
67.897522 13.741425 125.000000
68.816536 13.785187 125.000000
69.582375 13.812539 125.000000
66.227249 14.757689 125.000000
66.081375 15.598207 125.000008
68.043686 -1.102815 126.000000
69.080338 -1.191040 126.000000
56.684696 -0.661689 126.000000
56.905254 -0.441126 126.000000
68.080444 -0.588168 126.000000
69.002296 -0.576857 126.000008
69.808197 -0.551408 126.000000
70.359604 -0.441126 126.000000
63.558910 0.496267 126.000000
63.963272 0.551408 126.000000
68.153969 -0.000000 126.000000
69.091370 0.385985 126.000000
69.808189 0.441126 126.000000
70.359612 0.441126 126.000000
63.742714 1.102815 126.000000
67.381996 1.764504 126.000000
69.183273 1.176336 126.000000
69.795937 1.249857 126.000000
70.359604 1.102815 126.000000
67.366241 2.363175 126.000008
67.712845 2.646756 126.000000
56.905254 3.418726 126.000000
65.507217 3.418726 126.000000
67.492279 2.867319 126.000000
70.013000 3.308445 126.000008
70.359604 3.198164 126.000000
56.684696 3.749571 126.000000
56.905254 3.970134 126.000000
65.507217 3.749571 126.000000
66.389473 4.190697 126.000000
66.665169 4.190697 126.000000
69.855461 4.111925 126.000008
70.359604 4.080416 126.000000
67.036453 4.970020 126.000008
68.006927 5.146470 126.000000
69.011711 5.121963 126.000000
69.808197 4.962667 126.000000
70.359604 4.962667 126.000000
67.359947 5.646413 126.000000
68.065750 5.822864 126.000008
68.925941 5.844920 126.000000
69.738014 5.754689 126.000000
70.359604 5.844920 126.000000
56.537655 6.763933 126.000000
57.052299 6.763933 126.000000
68.374527 6.506608 126.000000
68.870804 6.451468 126.000000
69.697914 6.727172 126.000000
70.359604 6.727171 126.000000
56.574413 7.499143 126.000000
57.015537 7.499143 126.000000
69.771439 7.425621 126.000000
70.359604 7.572663 126.000000
68.962700 9.484210 126.000000
69.697922 9.452701 126.000008
70.359604 9.594490 126.000000
69.587631 10.035616 126.000000
70.359604 10.035616 126.000000
69.973618 12.186106 126.000000
70.359604 12.351530 126.000000
69.940544 13.123499 126.000000
70.359604 13.123499 126.000000
68.705376 14.116033 126.000000
70.139046 13.674908 126.000000
56.601025 -0.666941 127.000015
56.967838 -0.666941 127.000008
56.689949 3.557016 127.000008
57.023415 3.445859 127.000008
56.645485 4.090569 127.000015
57.060467 4.075748 127.000015
56.689949 7.336346 127.000008
56.598572 3.988340 128.000000
56.912262 4.033152 128.000000
