23.758663 128.530487 445.000000
26.485065 128.433105 445.000000
28.666187 128.374680 445.000000
31.256275 128.433105 445.000000
33.495815 128.530472 445.000000
36.222221 128.530457 445.000000
38.948624 128.530487 445.000000
41.285542 128.530472 445.000000
-28.169048 131.455566 447.000000
-25.039154 131.846802 447.000000
-23.943691 131.455566 447.000000
-15.649471 130.673080 447.000000
-13.458545 130.829575 447.000000
-10.842848 131.232010 447.000031
-8.495428 131.231995 447.000031
-6.259788 131.455566 447.000000
-3.910812 131.390030 446.777771
-1.483199 131.287857 445.899994
1.168459 131.312012 445.187500
3.966315 131.177383 445.090912
6.244423 131.128616 445.888885
8.587953 131.161469 446.000000
11.302431 131.348663 445.312500
14.021506 131.256866 445.000000
16.358421 131.256866 445.000000
18.766155 131.150665 445.000000
20.945704 130.953934 445.000000
23.489019 131.346741 445.000031
26.596348 131.757645 445.000031
28.977777 131.412643 445.000000
31.236799 131.490555 445.000000
33.566639 131.363098 445.000000
36.222229 131.256866 445.000000
38.948624 131.256866 445.000000
41.293423 131.281372 445.083344
-28.169046 133.020508 447.000000
-25.299978 133.281342 447.000000
-23.995855 133.281342 447.000000
-8.383645 133.802979 447.000031
-6.259789 133.802963 447.000000
-3.903615 133.503647 446.000000
-1.560863 133.663528 445.666656
1.012664 133.827484 445.000000
3.789333 133.641174 445.714294
6.245784 133.503647 446.000000
8.587954 133.503632 446.000000
11.405463 133.967041 445.181824
14.021505 133.983276 445.000000
16.358423 133.983276 445.000000
18.305855 134.372757 445.000000
23.856033 133.691162 445.000000
26.582438 133.885895 445.000000
28.821985 133.983276 445.000000
31.158901 133.983261 445.000000
33.495823 133.983276 445.000000
36.222225 133.983276 445.000000
38.948627 133.983261 445.000000
41.296047 134.016541 445.111115
43.110443 133.818298 445.750000
-10.954630 136.541626 447.000000
-8.137725 135.993896 447.000000
-6.248409 136.287079 446.166687
-3.903615 136.236176 446.000000
-1.631944 136.259079 445.727295
1.282241 136.294189 445.642883
3.903615 136.236176 446.000000
6.244472 136.210632 445.916687
8.576576 136.057175 445.416687
11.208721 136.247086 445.153870
14.021505 136.320206 445.000000
16.358423 136.320206 445.000000
18.597969 136.417572 445.000000
23.628834 136.406754 445.000000
26.485064 136.320206 445.000000
28.821985 136.320190 445.000000
31.158901 136.320175 445.000000
33.495815 136.320206 445.000000
35.919289 136.147079 445.000000
39.045998 136.222809 445.000000
41.285542 136.320190 445.000000
43.119194 135.981171 445.166687
-10.856820 138.399994 447.000000
-8.605265 138.463379 446.888885
-6.245784 138.968704 446.000000
-3.903616 138.968704 446.000000
-1.560863 138.864822 445.666656
1.171085 138.942886 445.916687
3.903615 138.968689 446.000000
6.242284 138.899246 445.777771
8.568699 138.657104 445.000000
11.295101 138.657120 445.000000
14.021505 138.657104 445.000000
16.358423 138.657120 445.000000
18.695341 138.657120 445.000000
21.032257 138.657104 445.000000
23.652439 138.727921 445.000000
26.485067 138.657104 445.000000
28.821981 138.657120 445.000000
31.158901 138.657104 445.000000
33.495823 138.657104 445.000000
35.443249 138.657104 445.000000
39.171188 138.768402 445.000031
41.285545 137.878143 445.000000
42.843491 137.878128 445.000000
-28.169046 142.410172 447.000000
-25.978123 141.705948 447.000000
-23.630701 141.940689 447.000000
-20.735550 142.018936 447.000000
-18.388128 141.236465 447.000000
-16.692768 141.106064 447.000000
-10.507503 141.180573 447.000031
-8.607210 141.236450 447.000000
-6.251036 141.416458 446.333344
-3.903615 141.310867 446.000000
-1.561252 141.275467 445.888885
1.171085 141.284302 445.916687
3.903615 141.310867 446.000000
6.244034 141.275467 445.888885
8.570643 141.029236 445.111115
11.295101 140.994019 445.000000
14.021504 140.994034 445.000000
16.358423 140.994019 445.000000
18.695339 140.994019 445.000000
21.032257 140.994019 445.000000
23.758659 140.994034 445.000000
26.485065 140.994019 445.000000
28.821981 140.994019 445.000000
31.158901 140.994034 445.000000
33.718384 140.882751 445.000031
35.248505 140.994019 445.000000
39.045994 141.091385 445.000000
40.896057 141.383499 445.000000
-33.646358 144.757614 447.000000
-25.902151 143.765656 446.888885
-23.585991 143.751556 447.000031
-21.126785 143.975128 447.000000
-18.555801 144.086914 447.000031
-17.214417 143.975128 447.000000
-13.302051 143.583893 447.000000
-10.954629 143.975128 447.000000
-8.607209 143.975128 447.000000
-6.259788 143.975128 447.000000
-3.906922 143.760773 446.333344
-1.560863 143.545670 445.666656
1.170939 143.572235 445.750000
3.978537 143.712021 445.700012
6.160535 143.647614 445.500000
8.641106 143.643341 445.090912
11.295101 143.720428 445.000000
14.021505 143.720428 445.000000
16.358423 143.720428 445.000000
18.695341 143.720428 445.000000
20.961441 143.685013 445.000000
23.758659 143.233566 445.000000
26.485067 143.720444 445.000000
28.821983 143.720428 445.000000
31.158901 143.720428 445.000000
33.829666 143.664795 445.000031
35.053764 143.720428 445.000000
39.208282 143.590607 445.000000
41.214729 143.826660 445.000000
-25.508636 146.322540 447.000000
-23.474205 146.322556 447.000000
-21.121534 146.285980 446.888885
-19.002930 146.210785 447.000031
-10.172155 145.931305 447.000000
-8.607208 146.322540 447.000000
-6.259789 146.322556 447.000000
-3.903615 145.995209 446.000000
-1.561057 145.922272 445.777771
1.170793 145.940369 445.833344
3.899142 146.109192 445.555573
6.306574 146.252548 445.272736
8.494302 146.356522 445.200012
11.295101 146.446838 445.000000
14.021504 146.446838 445.000000
16.358423 146.446854 445.000000
18.695339 146.446838 445.000000
20.253284 146.057343 445.000000
26.582439 146.349457 445.000000
28.821981 146.446854 445.000000
31.158901 146.446838 445.000000
34.274792 146.446838 445.000000
35.443253 146.641586 445.000000
38.948624 146.057343 445.000000
41.090797 145.862610 445.000000
-23.343794 148.409149 447.000000
-21.121532 148.633011 446.888885
-19.163307 148.614258 446.833344
-8.607208 147.887497 447.000000
-5.672934 148.474365 447.000000
-3.911590 148.633209 446.888885
-1.491426 148.681915 446.181824
1.171085 148.727753 446.000000
3.828185 148.682068 445.545471
6.231780 148.783768 445.000000
8.568699 148.783768 445.000000
11.295101 148.783752 445.000000
14.021505 148.783752 445.000000
16.358423 148.783768 445.000000
18.695341 148.783768 445.000000
27.264038 148.004791 445.000000
28.821981 148.783752 445.000000
31.158901 148.783752 445.000000
33.607101 149.006317 445.000031
35.930107 148.783768 445.000000
40.506569 148.394272 445.000000
-38.732437 150.234924 447.000000
-23.474205 150.234924 447.000000
-21.909260 150.234924 447.000000
-8.607208 151.017395 447.000000
-5.477315 150.234924 447.000000
-3.912368 150.626160 447.000000
-1.563197 150.531342 446.333344
3.897197 150.454315 445.333344
6.231780 150.536438 445.000000
8.568698 150.341705 445.000000
11.295101 150.731186 445.000000
13.632019 150.341705 445.000000
16.358423 150.341705 445.000000
29.600956 151.120667 445.000000
31.158901 151.120667 445.000000
33.495823 151.120667 445.000000
35.521149 150.809082 445.000000
28.295082 -1.178962 449.000000
30.914999 -1.047966 449.000000
14.933516 1.964936 449.000000
15.719492 2.357924 449.000000
19.649364 1.571949 449.000000
26.723135 0.785975 449.000000
28.766666 0.471585 449.000000
31.438980 0.392987 449.000000
34.582878 0.785975 449.000000
35.368851 -0.000000 449.000000
11.003643 4.322860 449.000000
13.885550 4.191864 449.000000
15.719493 3.929873 449.000000
19.649364 3.536886 449.000000
20.435337 4.715847 449.000000
31.438980 4.715848 449.000000
33.796902 4.715848 449.000000
35.761841 4.715847 449.000000
11.003643 6.287796 449.000000
13.754555 6.287796 449.000000
16.393185 6.063233 449.000031
18.863388 5.894809 449.000000
21.123066 6.386043 449.000000
23.466955 6.512360 449.000031
25.937160 7.073771 449.000000
28.688068 7.073771 449.000000
31.438982 6.287796 449.000000
33.796906 6.287796 449.000000
36.154827 6.287796 449.000000
37.988770 6.811779 449.000000
11.003643 8.383730 449.000000
13.099577 8.907713 449.000000
21.333593 8.758002 449.000031
23.579235 8.645720 449.000000
25.937159 8.743967 449.000000
28.677128 8.642220 448.833344
31.392691 8.632495 448.333344
33.780567 8.641248 448.777771
36.154827 8.645720 449.000000
38.414505 8.645720 449.000000
40.084702 9.431695 449.000000
-18.863390 11.003643 449.000000
-17.291439 11.003643 449.000000
11.789618 10.217669 449.000000
13.361567 10.217669 449.000000
19.649364 11.003643 449.000000
21.215868 11.000726 448.888885
23.532360 10.981860 448.111115
26.285950 10.984825 448.250000
29.016291 10.979136 448.000000
31.368961 10.979137 448.000000
33.780567 10.998003 448.777771
36.154831 11.003643 449.000000
38.288193 11.115926 449.000031
-17.291439 13.754555 449.000000
8.842214 14.737022 449.000000
11.228208 14.147542 449.000031
13.518763 14.147540 449.000000
16.603712 14.245787 449.000000
19.033186 14.056516 448.888885
21.189514 13.733549 448.333344
23.526722 13.723921 448.000000
26.271505 13.723922 448.000000
29.032629 13.732090 448.250000
31.433296 13.752220 448.916687
33.796906 13.754555 449.000000
36.154827 13.754555 449.000000
38.512756 13.754555 449.000000
40.084702 14.147543 449.000000
6.759381 16.505465 449.000000
8.645720 16.505466 449.000000
11.003644 16.393185 449.000031
13.754555 16.505466 449.000000
16.497103 16.496908 448.777771
18.844328 16.489128 448.555573
21.184357 16.476873 448.222229
23.526720 16.468706 448.000000
26.271505 16.468706 448.000000
29.016293 16.468706 448.000000
31.431396 16.501186 448.888885
33.796902 16.505465 449.000000
36.154835 16.505466 449.000000
38.512756 16.505465 449.000000
40.084702 16.505466 449.000000
-12.968580 19.649364 449.000000
-11.003643 19.452871 449.000000
-7.859746 19.649364 449.000000
3.772678 19.334974 449.000000
6.680784 18.863390 449.000000
8.645720 18.863388 449.000000
11.003644 18.863390 449.000000
13.754555 18.863388 449.000000
16.497103 18.854441 448.777771
18.821377 18.821377 448.000000
21.200500 18.845106 448.555573
23.544031 18.835772 448.333344
26.271507 18.821381 448.000000
29.016291 18.821377 448.000000
31.416224 18.849386 448.666656
33.746723 18.835186 448.333344
36.146076 18.858719 448.888885
38.512753 18.863390 449.000000
40.084702 18.863388 449.000000
-29.081059 22.007286 449.000000
-12.575593 20.435337 449.000000
-11.003643 20.828327 449.000000
-8.645720 21.352308 449.000000
-6.287796 20.435337 449.000000
4.028120 21.319561 449.000000
6.287796 21.221312 449.000000
8.645720 21.221310 449.000000
11.003644 21.221310 449.000000
13.754555 21.221312 449.000000
16.505466 21.221312 449.000000
18.835772 21.190195 448.333344
21.205557 21.206142 448.666656
23.573206 21.216257 448.888885
26.280842 21.182072 448.166687
28.918262 21.076023 448.000000
31.368961 21.174051 448.000000
33.721634 21.174049 448.000000
36.137325 21.210613 448.777771
38.512753 21.221312 449.000000
40.281197 21.417805 449.000000
-11.003643 23.579235 449.000000
-8.252733 23.579237 449.000000
-6.130601 24.050821 449.000000
3.929873 23.579237 449.000000
6.287796 23.579233 449.000000
8.645720 23.579235 449.000000
11.003643 23.579237 449.000000
13.726255 23.530951 448.083344
16.468704 23.526720 448.000000
18.831104 23.538584 448.222229
21.205362 23.561342 448.666656
23.555506 23.555506 448.555573
26.276173 23.530951 448.083344
28.545755 23.369877 448.000000
31.957130 23.526720 448.000000
33.721638 23.526720 448.000000
36.083447 23.532360 448.111115
38.494083 23.567373 448.777771
40.772427 23.677483 449.000000
-10.217669 26.330147 449.000000
-8.645720 25.937160 449.000000
-5.498758 26.314831 448.750000
4.005319 26.076502 448.700012
6.202897 26.065298 448.500000
8.645720 25.937159 449.000000
10.891362 25.712597 449.000031
13.804560 26.196819 448.066681
16.468706 26.271511 448.000000
18.828674 26.280987 448.166687
21.181637 26.280989 448.166687
23.530951 26.276173 448.083344
26.271505 26.271505 448.000000
28.232065 26.271505 448.000000
31.891781 25.356579 448.000000
34.505859 26.140804 448.000000
36.074306 26.271505 448.000000
38.400551 26.070898 448.600006
40.646111 25.824881 449.000031
-10.217669 28.688068 449.000000
-8.645720 28.688070 449.000000
-6.023763 28.546574 448.833344
-4.322860 28.688068 449.000000
2.357924 28.688068 449.000000
3.857466 28.789518 448.909119
6.355112 28.777903 448.727295
8.570928 28.569115 448.818207
14.900256 29.016289 448.000000
16.468704 29.016293 448.000000
18.821377 29.016291 448.000000
21.174049 29.016291 448.000000
23.526720 29.016291 448.000000
26.271507 29.016287 448.000000
28.232067 29.016289 448.000000
31.368963 28.624178 448.000000
33.721638 29.016291 448.000000
36.074306 29.016293 448.000000
38.584209 28.795248 449.000000
40.281197 28.295082 449.000000
-10.217669 31.438980 449.000000
-8.421156 31.326698 449.000031
-6.287796 31.537230 449.000000
-4.152186 31.530758 448.714294
2.357924 31.045994 449.000000
3.929873 31.438982 449.000000
6.680784 31.438980 449.000000
8.421156 31.551264 449.000031
14.900256 32.153187 448.000000
16.468706 30.584738 448.000000
18.821377 30.584738 448.000000
21.174049 30.584736 448.000000
23.526724 30.584738 448.000000
26.193083 30.741583 448.000000
32.153187 32.153187 448.000000
33.721634 31.368961 448.000000
36.172333 31.270933 448.000000
38.484550 31.415253 448.666656
40.739681 31.700974 449.000000
-23.422041 34.268490 449.000000
-21.221313 34.582878 449.000000
-18.706194 34.268490 449.000000
-17.291439 34.582878 449.000000
-13.361567 33.796902 449.000000
-11.003643 33.698654 449.000000
-8.645720 33.796902 449.000000
-6.286435 33.788738 448.888885
-3.924232 33.746532 448.333344
-1.765817 34.328621 448.250000
1.176336 34.505859 448.000000
3.926372 33.763062 448.555573
6.189549 33.698658 449.000000
14.900256 33.721634 448.000000
19.213490 34.113747 448.000000
22.742496 34.505859 448.000000
31.368961 33.721638 448.000000
33.721634 33.721638 448.000000
36.186340 33.497570 448.000031
38.446430 33.738167 448.222229
40.646111 33.909191 449.000031
-27.509108 36.940807 449.000000
-23.264845 36.312023 449.000000
-21.221313 36.154831 449.000000
-18.863388 36.154827 449.000000
-16.603712 36.056580 449.000000
-13.754555 36.154827 449.000000
-10.891361 36.154831 449.000031
-8.547473 36.253078 449.000000
-6.287796 36.154827 449.000000
-3.923260 36.092590 448.222229
-1.569032 36.083447 448.111115
1.176336 36.074303 448.000000
3.697056 35.962276 448.000031
31.368961 35.682198 448.000000
33.721634 35.682194 448.000000
36.074306 35.682198 448.000000
38.426979 35.682194 448.000000
41.263660 35.761841 449.000000
-27.823500 38.669949 449.000000
-26.723135 38.512753 449.000000
-23.579237 38.512756 449.000000
-21.221310 38.512753 449.000000
-18.863390 38.414509 449.000000
-16.730030 38.625038 449.000031
-13.249285 38.512753 449.000031
-10.891361 38.288193 449.000031
-8.533438 38.288193 449.000031
-6.287796 38.512753 449.000000
-3.929095 38.503418 448.888885
-1.497633 38.719788 448.090912
1.176336 38.819096 448.000000
3.529008 38.819092 448.000000
-27.980692 41.185066 449.000000
-25.151186 41.656647 449.000000
-24.365211 40.870674 449.000000
-20.631832 40.674179 449.000000
-18.077414 41.263664 449.000000
-16.499632 41.248055 448.833344
-13.750726 41.251839 448.875000
-11.003643 41.263664 449.000000
-9.431695 40.870674 449.000000
-5.950950 41.319805 449.000031
-3.929873 41.263664 449.000000
-1.647921 41.425240 448.200012
1.176336 41.563877 448.000000
3.529008 41.563877 448.000000
-25.151186 44.800549 449.000000
-23.579235 44.407562 449.000000
-21.221312 44.014576 449.000000
-18.725683 44.259941 448.833344
-16.489515 43.970814 448.555573
-13.741135 43.973732 448.583344
-11.003643 44.014576 449.000000
-8.645720 44.014576 449.000000
-6.287796 44.014576 449.000000
-3.929873 44.014576 449.000000
-1.570004 43.949612 448.333344
1.283276 43.987843 448.000000
3.823092 44.014572 448.000000
5.489568 44.308659 448.000000
-25.151186 45.979507 449.000000
-23.579235 46.372498 449.000000
-21.221310 46.372494 449.000000
-18.858917 46.361217 448.888885
-16.497293 46.349934 448.777771
-13.749157 46.355576 448.833344
-11.003642 46.372498 449.000000
-8.641829 46.349354 448.777771
-6.277099 46.291775 448.222229
-3.921120 46.269215 448.000000
-1.792512 46.157188 448.000031
1.176336 46.269218 448.000000
3.921120 46.269215 448.000000
5.685625 46.465271 448.000000
14.900256 45.484993 448.000000
15.684482 45.484993 448.000000
38.949795 46.530632 448.000000
41.432087 46.709343 449.000031
-25.151186 49.516396 449.000000
-23.354671 48.842705 449.000031
-21.221312 48.730423 449.000000
-18.863390 48.730423 449.000000
-16.505466 48.730423 449.000000
-13.754554 48.730431 449.000000
-11.003644 48.730423 449.000000
-8.635218 48.670132 448.444458
-6.280600 48.670326 448.444458
-3.921120 48.621895 448.000000
-1.792512 48.621895 448.000031
1.069397 48.550606 448.000000
3.764275 48.151356 448.000000
5.489568 47.837666 448.000000
7.842241 49.014008 448.000000
39.211201 48.621895 448.000000
41.626114 48.693859 448.666656
43.857380 49.202003 449.000000
-25.151186 50.695358 449.000000
-23.422041 50.931149 449.000000
-21.221313 51.088348 449.000000
-18.863390 51.088348 449.000000
-16.505466 51.088348 449.000000
-13.754555 51.088345 449.000000
-10.993335 51.037781 448.555573
-8.638913 51.050804 448.666656
-6.283712 51.050419 448.666656
-3.921120 50.974564 448.000000
-1.960560 50.974564 448.000000
0.784224 50.190342 448.000000
7.842241 50.190342 448.000000
36.858532 51.758785 448.000000
39.211201 50.974567 448.000000
41.595192 51.012104 448.333344
44.003487 51.075508 448.888885
-28.098589 53.249775 449.000000
-25.151186 54.232243 449.000000
-23.466955 53.670834 449.000031
-21.221312 53.446262 449.000000
-18.863388 53.446262 449.000000
-16.488598 53.677177 448.545471
-13.723920 53.719353 448.000000
-10.979136 53.719345 448.000000
-8.632591 53.758728 448.333344
-6.276418 53.739040 448.166687
-3.921120 53.719353 448.000000
-1.960560 53.719345 448.000000
39.603313 53.719349 448.000000
41.563881 53.719341 448.000000
43.759701 53.562508 448.000000
-31.438982 56.590168 449.000000
-28.609472 56.275776 449.000031
-25.937160 56.197182 449.000000
-23.579237 56.197182 449.000000
-21.221313 56.197182 449.000000
-18.846323 56.144524 448.583344
-16.472380 56.319538 448.100006
-13.723919 56.464127 448.000000
-10.979136 56.464130 448.000000
-8.626465 56.464130 448.000000
-6.273792 56.464130 448.000000
-3.921120 56.366104 448.000000
-1.666476 56.562157 448.000000
2.352672 57.248352 448.000000
39.995426 56.072018 448.000000
41.661903 56.366100 448.000000
43.692486 56.576160 448.000031
-31.281788 58.790894 449.000000
-28.609472 58.319313 449.000000
-25.937159 58.948093 449.000000
-23.561731 58.903740 448.666656
-21.221310 58.948093 449.000000
-18.840439 58.875347 448.444458
-16.468704 58.816799 448.000000
-13.723921 58.816795 448.000000
-10.979136 58.816807 448.000000
-8.626465 58.816799 448.000000
-6.175764 58.718777 448.000000
-3.921120 58.032581 448.000000
-1.792512 58.704773 448.000031
2.091264 58.293987 448.000000
3.809088 59.040871 448.000031
42.348106 58.816803 448.000000
43.818516 58.718773 448.000000
-33.010929 60.520035 449.000000
-31.214418 61.193729 449.000031
-28.688070 61.463203 449.000000
-25.911293 61.245911 448.555573
-23.555506 61.245327 448.555573
-21.221313 61.306011 449.000000
-18.863390 61.306011 449.000000
-16.481543 61.214985 448.333344
-13.723921 61.169464 448.000000
-10.979136 61.169476 448.000000
-8.626465 61.169476 448.000000
-6.273792 61.169476 448.000000
-4.313232 61.169476 448.000000
-1.882138 61.012630 448.000000
1.960560 60.385250 448.000000
3.921120 60.777359 448.000000
5.881680 60.385250 448.000000
39.995426 61.953701 448.000000
41.675911 61.393543 448.000031
43.557110 61.214989 448.333344
-37.726780 64.449913 449.000000
-35.565346 63.860435 449.000000
-34.058895 63.925934 449.000000
-31.124592 63.978333 449.000000
-28.688070 63.663940 449.000000
-25.899231 63.569416 448.333344
-23.538002 63.553665 448.222229
-21.221310 63.663940 449.000000
-18.863388 63.663940 449.000000
-16.493795 63.616680 448.666656
-13.726401 63.534115 448.083344
-10.979136 63.522148 448.000000
-8.626465 63.522148 448.000000
-6.273792 63.522148 448.000000
39.995430 63.522152 448.000000
41.477661 63.539654 448.125000
-37.923271 65.825371 449.000000
-36.154827 66.021866 449.000000
-33.796906 65.923615 449.000000
-31.438982 66.021866 449.000000
-28.688068 66.021866 449.000000
-25.813511 66.173523 448.090912
-23.526722 66.266930 448.000000
-21.174053 66.266930 448.000000
-18.825026 66.279037 448.083344
-16.468706 66.266930 448.000000
-13.723922 66.266930 448.000000
-10.979137 66.266930 448.000000
-8.626465 66.266937 448.000000
-6.535200 65.744125 448.000000
-3.921120 65.482712 448.000000
-1.960560 65.482712 448.000000
39.995426 66.266930 448.000000
41.563881 66.266930 448.000000
43.132324 66.266930 448.000000
-37.726784 68.903763 449.000000
-36.329491 68.467117 449.000000
-33.010929 67.986794 449.000000
-31.438984 68.772766 449.000000
-28.688066 68.772774 449.000000
-26.015760 69.008560 449.000000
-23.526720 69.011719 448.000000
-21.174051 69.011711 448.000000
-18.821379 69.011719 448.000000
-16.468706 69.011719 448.000000
-13.723921 69.011719 448.000000
-10.979137 69.011711 448.000000
-8.626465 69.011719 448.000000
-6.535200 68.881012 448.000000
-4.705344 69.011719 448.000000
39.995426 68.619606 448.000000
41.563877 69.011711 448.000000
43.524437 69.011719 448.000000
-28.295082 71.523682 449.000000
-25.899233 71.417480 448.333344
-23.526720 71.364388 448.000000
-21.174051 71.364388 448.000000
-18.821377 71.364388 448.000000
-16.730114 71.495102 448.000000
-13.821949 71.462418 448.000000
-10.881108 71.364388 448.000000
-9.096999 71.207542 448.000000
-1.960560 71.756500 448.000000
41.825283 71.625793 448.000000
43.524437 71.364395 448.000000
-37.726780 73.095634 449.000000
-33.796902 73.881607 449.000000
-30.653006 73.095634 449.000000
-28.688068 73.881615 449.000000
-25.899231 73.771912 448.333344
-23.526720 73.717064 448.000000
-21.174049 73.717056 448.000000
-18.821377 73.717064 448.000000
-16.468704 73.717056 448.000000
-13.723922 73.717064 448.000000
-11.109840 73.455658 448.000000
-9.410688 72.932838 448.000000
-5.750977 73.978477 448.000000
-3.809088 73.941132 448.000031
-1.960560 73.717064 448.000000
41.955986 73.717056 448.000000
44.112606 74.305229 448.000000
-35.761841 76.239532 449.000000
-33.796902 76.239532 449.000000
-31.438982 76.239532 449.000000
-28.688070 76.239532 449.000000
-25.892618 76.107277 448.222229
-23.532557 76.088600 448.111115
-21.174051 76.069733 448.000000
-18.821377 76.069733 448.000000
-16.468704 76.069733 448.000000
-13.723922 76.069733 448.000000
-11.077164 76.167763 448.000000
-8.626465 76.657898 448.000000
-5.803258 76.226578 448.000000
-4.051825 75.808327 448.000000
-1.829856 75.546921 448.000000
39.995426 76.461845 448.000000
41.041058 75.546921 448.000000
43.916546 75.756042 448.000000
-35.368851 77.811478 449.000000
-33.684624 78.372902 449.000031
-31.438982 78.597450 449.000000
-28.795250 78.526001 449.000000
-26.103458 78.926559 448.000031
-23.526722 78.814514 448.000000
-21.174049 78.814514 448.000000
-18.821379 78.814514 448.000000
-16.468704 78.814514 448.000000
-13.723920 78.814507 448.000000
-10.979136 78.814514 448.000000
-8.626465 78.814514 448.000000
-6.497857 78.646469 448.000031
39.995426 77.638176 448.000000
-31.340734 80.857124 449.000000
-28.923862 81.033966 449.000000
-26.036240 81.480888 448.000000
-23.526720 81.559311 448.000000
-21.174051 81.559303 448.000000
-18.821377 81.559303 448.000000
-16.468706 81.559303 448.000000
-13.723921 81.559311 448.000000
-10.979136 81.559303 448.000000
-8.626465 81.559303 448.000000
-6.861960 81.363251 448.000000
43.446014 81.559311 448.000000
-38.316261 84.688759 449.000000
-35.997635 84.570862 449.000000
-34.189888 84.885254 449.000000
-31.351650 84.011948 449.000000
-28.609472 83.784882 449.000031
-25.912071 84.016029 448.555573
-23.526720 83.911972 448.000000
-21.174051 83.911980 448.000000
-18.821379 83.911987 448.000000
-16.468704 83.911972 448.000000
-13.759566 83.840698 448.000000
-10.979136 83.813957 448.000000
-8.626465 83.519867 448.000000
43.524437 83.519867 448.000000
-38.414509 86.358948 449.000000
-36.137321 86.414215 448.777771
-33.754700 86.349846 448.444458
-31.431396 86.435616 448.888885
-28.795250 86.385742 449.000000
-26.042191 86.362160 448.100006
-23.526720 86.264648 448.000000
-21.174051 86.264648 448.000000
-18.821377 86.264656 448.000000
-16.468706 86.264648 448.000000
-13.767489 86.438919 448.000000
-10.822291 86.264648 448.000000
-9.410688 87.048874 448.000000
42.348103 87.048874 448.000000
-38.041168 88.972321 449.000000
-36.154831 88.815117 449.000000
-33.780178 88.771355 448.777771
-31.384718 88.660881 448.222229
-29.016291 88.617317 448.000000
-26.271505 88.617310 448.000000
-23.526720 88.617317 448.000000
-21.174051 88.617310 448.000000
-18.821377 88.617317 448.000000
-16.730114 88.355911 448.000000
-12.547585 87.833092 448.000000
-10.848433 88.617325 448.000000
-8.724493 88.715340 448.000000
-6.665905 89.009430 448.000000
-37.726780 90.387070 449.000000
-36.154835 91.173050 449.000000
-33.772205 91.104965 448.666656
-31.368961 90.969994 448.000000
-29.016291 90.969994 448.000000
-26.271505 90.969994 448.000000
-23.526720 90.969994 448.000000
-21.174051 90.970001 448.000000
-18.821377 90.970001 448.000000
-17.056873 91.166039 448.000000
-10.979136 90.969994 448.000000
-8.626465 90.970001 448.000000
-6.497857 91.082016 448.000031
-37.726780 93.923950 449.000000
-36.068356 93.666985 448.899994
-33.771812 93.853500 448.666687
-31.461740 93.520988 448.200012
-29.038269 93.392487 448.333344
-26.193087 93.636360 448.000031
-23.526722 93.714775 448.000000
-21.174051 93.714783 448.000000
-18.821377 92.930557 448.000000
-17.252930 92.538437 448.000000
-10.717730 93.584068 448.000000
-8.528437 93.322662 448.000000
-6.861960 93.126602 448.000000
44.308659 94.498993 448.000000
-38.218014 96.576622 449.000000
-36.190155 96.291039 448.545471
-33.721634 96.459557 448.000000
-31.316607 96.232300 448.272736
-28.842991 96.123459 448.785736
-26.164568 96.530853 448.000000
-23.526720 96.459557 448.000000
-21.435459 96.720970 448.000000
-12.547585 97.243790 448.000000
-10.848433 96.590263 448.000000
-8.626465 96.459564 448.000031
-7.058016 96.459564 448.000000
43.393734 96.459557 448.000000
-41.132668 99.294785 449.000000
-38.474827 98.934181 448.555573
-36.083447 98.836540 448.111115
-33.721634 98.812233 448.000000
-31.368961 98.812225 448.000000
-29.030878 98.860863 448.222229
-26.271507 98.812225 448.000000
-23.526720 98.812233 448.000000
-21.174051 98.812233 448.000000
-19.605600 99.596458 448.000000
-13.219777 98.924271 448.000031
-10.979136 98.812233 448.000000
-8.626465 98.812233 448.000000
-6.665905 98.812241 448.000000
42.348103 99.596458 448.000000
43.524437 98.812233 448.000000
47.158470 99.818764 449.000000
-44.800549 101.783699 449.000000
-41.132664 101.128716 449.000000
-38.494083 101.340729 448.777771
-36.100952 101.240372 448.333344
-33.796902 101.390717 449.000000
-31.431396 101.365623 448.888885
-29.016291 101.164902 448.000000
-26.271505 101.164902 448.000000
-23.526720 101.164902 448.000000
-21.174051 101.164902 448.000000
-18.821379 101.164902 448.000000
-16.370678 101.262939 448.000000
-13.688274 101.236206 448.000000
-10.979136 101.164909 448.000000
-8.626465 101.164902 448.000000
-6.744327 101.008057 448.000000
44.027050 101.094879 448.125000
46.274246 101.292465 449.000000
47.944450 101.390709 449.000000
-45.900909 103.591446 449.000000
-44.126854 103.973198 449.000031
-41.787647 103.748642 449.000000
-38.288193 103.636360 449.000031
-36.154831 103.748634 449.000000
-33.779984 103.696907 448.777771
-31.438978 103.748642 449.000000
-29.031075 103.568733 448.222229
-26.271505 103.517578 448.000000
-23.526720 103.517578 448.000000
-21.174051 103.517586 448.000000
-18.821379 103.517578 448.000000
-16.468706 103.517586 448.000031
-13.331810 103.047035 448.000000
-10.979136 103.125458 448.000000
-8.528437 103.419540 448.000000
-7.058016 103.125458 448.000000
44.309361 103.544876 448.800018
45.848511 103.486649 449.000000
-46.058105 106.106560 449.000000
-44.486156 106.263756 449.000000
-38.041168 106.263756 449.000000
-36.154831 106.106552 449.000000
-33.670872 106.220032 448.272736
-31.398430 106.360535 448.416687
-29.021833 106.281906 448.083344
-26.271505 106.262352 448.000000
-23.526722 106.262352 448.000000
-21.174053 106.262360 448.000000
-18.821379 106.262352 448.000000
-16.625549 106.105522 448.000000
43.916546 105.870247 448.000000
-48.416031 108.778885 449.000000
-46.372498 108.464500 449.000000
-44.407562 108.464500 449.000000
-41.027870 108.936073 449.000000
-38.414509 108.562744 449.000000
-36.068897 108.705750 448.818207
-33.807758 108.874283 448.100006
-31.368961 109.007141 448.000000
-29.016291 109.007141 448.000000
-26.271507 109.007141 448.000000
-23.526720 109.007149 448.000000
-21.174049 109.007141 448.000000
-18.821377 109.007149 448.000000
-16.566734 109.105171 448.000000
-14.508144 109.399254 448.000000
-9.410688 109.399254 448.000000
-50.302372 112.394356 449.000000
-48.721523 111.194542 448.916687
-46.320999 111.090820 448.500000
-43.981461 111.132385 448.666687
-41.263660 111.215378 449.000000
-38.505753 111.194534 448.916687
-36.169186 111.252159 448.200012
-33.721634 111.359810 448.000000
-31.368961 111.359810 448.000000
-29.016293 111.359818 448.000000
-26.271507 111.359825 448.000000
-23.526720 111.359818 448.000000
-21.174051 111.359810 448.000000
-18.821379 111.359802 448.000000
-16.468704 111.359810 448.000000
-14.638849 110.836998 448.000000
-9.410688 110.575592 448.000000
-52.660290 113.966309 449.000000
-50.863785 114.078583 449.000031
-48.658649 113.797096 448.333344
-46.314728 113.825294 448.444458
-43.971203 113.853691 448.555573
-41.263664 113.966301 449.000000
-38.493885 113.909508 448.777771
-36.083447 113.740692 448.111115
-33.721638 113.712494 448.000000
-31.368961 113.712494 448.000000
-29.016291 113.712479 448.000000
-26.271505 113.712509 448.000000
-23.526720 113.712486 448.000000
-21.076023 113.614456 448.000000
-18.821377 113.712486 448.000000
-16.580738 113.488419 448.000031
-7.058016 114.104599 448.000000
-52.660290 116.717216 449.000000
-51.088345 116.324234 449.000000
-48.730419 116.324234 449.000000
-46.372498 116.324234 449.000000
-44.014572 116.324234 449.000000
-41.263664 116.324234 449.000000
-38.465687 116.180504 448.444458
-36.083447 116.094147 448.111115
-33.738167 116.122734 448.222229
-31.384325 116.122719 448.222229
-29.016293 116.065163 448.000000
-26.271511 116.065155 448.000000
-23.526720 116.065163 448.000000
-21.330894 115.908318 448.000000
-18.821377 116.065163 448.000000
-17.252930 115.673050 448.000000
-52.660290 118.682152 449.000000
-51.088345 118.682159 449.000000
-48.730427 118.682144 449.000000
-46.372494 118.682144 449.000000
-44.014576 118.682144 449.000000
-41.263664 118.682152 449.000000
-38.503223 118.652969 448.888885
-36.145882 118.652969 448.888885
-33.681198 118.707008 448.500000
-31.368965 118.809937 448.000000
-29.016289 118.809937 448.000000
-26.271505 118.809937 448.000000
-23.526722 118.809952 448.000000
-21.435459 118.809952 448.000000
-19.045441 118.417847 448.000031
-52.660290 121.040070 449.000000
-51.088348 121.040070 449.000000
-48.730427 121.040070 449.000000
-46.372494 121.040070 449.000000
-44.604053 120.843575 449.000000
-41.342262 121.040062 449.000000
-38.512756 121.152367 449.000031
-36.154831 121.040070 449.000000
-33.834465 121.416595 448.545471
-31.368961 121.554726 448.000000
-29.016291 121.554718 448.000000
-26.271505 121.554718 448.000000
-23.526720 121.554726 448.000000
-21.174051 121.554726 448.000000
-18.821377 121.554726 448.000000
-52.660290 123.790985 449.000000
-51.088345 123.790985 449.000000
-48.721523 123.767784 448.916687
-46.354992 123.744766 448.833344
-44.309315 123.987488 449.000000
-40.982960 124.296265 449.000031
-38.512756 123.790985 449.000000
-36.107857 123.629364 448.416687
-33.730190 123.937935 448.111115
-31.368961 123.907402 448.000000
-29.016291 123.907402 448.000000
-26.271507 123.907410 448.000000
-23.526720 123.907402 448.000000
-21.174051 123.907402 448.000000
-18.821377 123.907402 448.000000
-17.252930 124.691628 448.000000
-53.221703 126.654182 449.000031
-51.088345 126.541901 449.000000
-48.718365 126.510391 448.888885
-46.303638 126.353432 448.333344
-44.003487 126.510391 448.888885
-41.263664 126.541901 449.000000
-38.512753 126.541901 449.000000
-36.074306 126.260078 448.000000
-33.721638 126.260078 448.000000
-31.368961 126.260078 448.000000
-29.016291 126.260063 448.000000
-26.271505 126.260071 448.000000
-23.526720 126.260078 448.000000
-21.174051 126.260063 448.000000
-19.135065 125.946388 448.000000
-53.446262 128.899811 449.000000
-51.088345 128.899826 449.000000
-48.730423 128.899826 449.000000
-46.269215 128.612747 448.000000
-43.959534 128.740128 448.444458
-41.263664 128.899826 449.000000
-38.512756 128.899826 449.000000
-36.074303 128.612747 448.000000
-33.721634 128.612747 448.000000
-31.368961 128.612747 448.000000
-29.128321 128.836823 448.000031
-26.164568 128.684052 448.000000
-23.526720 128.612747 448.000000
-21.272079 128.514709 448.000000
-60.520035 132.043716 449.000000
-58.948090 132.043716 449.000000
-57.114151 131.781723 449.000000
-53.708260 130.995773 449.000000
-51.088345 131.257751 449.000000
-48.730427 131.257751 449.000000
-46.269215 130.965408 448.000000
-43.937943 131.030182 448.222229
-41.263664 131.257751 449.000000
-38.512756 131.257751 449.000000
-36.101730 131.062866 448.333344
-33.721638 130.965424 448.000000
-31.368961 130.965408 448.000000
-29.277699 130.965424 448.000000
-26.378447 130.894119 448.000000
-23.056187 130.965424 448.000000
-21.272078 131.063446 448.000000
-18.821377 131.357529 448.000000
-16.625549 131.435959 448.000000
-14.116034 131.749664 448.000000
-63.663937 133.615677 449.000000
-61.306011 134.401642 449.000000
-59.341076 133.615662 449.000000
-56.904552 133.615677 449.000000
-50.302376 133.615692 449.000000
-48.730427 133.615677 449.000000
-46.361217 133.582809 448.888885
-43.981895 133.516663 448.666656
-41.417309 133.605331 448.727295
-38.757828 133.847809 448.200012
-36.074306 133.710205 448.000000
-33.721638 133.710205 448.000000
-31.368963 133.710190 448.000000
-29.173136 133.867050 448.000000
-26.598267 133.840881 448.000000
-23.190624 134.102325 448.000031
-21.174051 133.710205 448.000000
-18.821379 133.710205 448.000000
-16.468706 133.710190 448.000000
-13.723921 133.710190 448.000000
-11.050429 133.817123 448.000000
-9.214632 133.318085 448.000000
-61.207760 135.973587 449.000000
-59.172657 135.861313 449.000031
-56.983154 135.187607 449.000000
-50.498863 136.170074 449.000000
-48.730427 135.973587 449.000000
-46.372494 135.973587 449.000000
-44.014576 135.973587 449.000000
-41.420856 136.130783 449.000000
-38.583824 136.533401 448.000000
-36.074306 136.454987 448.000000
-33.721634 136.454987 448.000000
-31.368961 136.455002 448.000000
-29.016291 136.454971 448.000000
-26.271505 136.454987 448.000000
-23.526720 136.455002 448.000000
-21.174051 136.454971 448.000000
-18.821377 136.455002 448.000000
-16.468706 136.454987 448.000000
-13.723921 136.455002 448.000000
-10.979136 136.141296 448.000000
-9.214632 136.651031 448.000000
-63.139954 138.069519 449.000000
-61.207760 138.429764 449.000000
-59.284935 138.892929 449.000031
-56.983154 139.903458 449.000000
-53.151524 139.019241 449.000000
-50.695358 139.117493 449.000000
-48.658970 138.760239 449.000000
-46.372494 138.724503 449.000000
-44.014572 138.724487 449.000000
-41.375946 138.724487 449.000031
-38.414509 139.019241 449.000000
-36.110676 138.945541 448.444458
-33.721638 138.807663 448.000000
-31.368961 138.807648 448.000000
-29.016291 138.807663 448.000000
-26.271505 138.807648 448.000000
-23.526720 138.807648 448.000000
-21.174051 138.807648 448.000000
-18.821379 138.807648 448.000000
-16.468706 138.807663 448.000000
-13.723921 138.807648 448.000000
-11.763360 139.591873 448.000000
-58.948093 141.475403 449.000000
-56.197182 141.475433 449.000000
-53.446262 141.475418 449.000000
-51.088345 141.475418 449.000000
-48.730423 141.475418 449.000000
-46.372494 141.475403 449.000000
-44.014576 141.475418 449.000000
-41.370842 141.403961 449.000000
-38.480370 141.553101 448.625000
-36.119431 141.334976 448.555573
-33.721638 141.160339 448.000000
-31.368961 141.160324 448.000000
-29.016291 141.160339 448.000000
-26.663618 140.768219 448.000000
-23.526722 140.768219 448.000000
-21.286081 140.936264 448.000031
-19.135067 140.846634 448.000000
-16.338001 141.029633 448.000000
-13.723921 141.160339 448.000000
-11.567304 141.356384 448.000000
-58.835808 143.833344 449.000031
-56.197182 143.833344 449.000000
-53.446266 143.833344 449.000000
-51.088345 143.833344 449.000000
-48.828674 143.735092 449.000000
-46.176003 143.243866 449.000000
-44.014576 143.833344 449.000000
-41.626118 143.726959 448.666656
-38.826385 143.539551 448.083344
-36.074303 143.513000 448.000000
-33.721634 143.513000 448.000000
-31.368961 143.513000 448.000000
-29.114317 143.611023 448.000000
-27.447842 144.297211 448.000000
-22.742496 142.728775 448.000000
-21.958273 142.728775 448.000000
-19.135067 143.199295 448.000000
-16.370678 143.513000 448.000000
-13.802344 143.434570 448.000000
-11.763360 142.728775 448.000000
-58.723530 146.078995 449.000031
-56.197182 146.191269 449.000000
-53.544510 146.093018 449.000000
-51.088345 145.798279 449.000000
-48.730423 145.798294 449.000000
-46.372494 146.191269 449.000000
-44.014572 146.191254 449.000000
-41.370838 146.262726 449.000000
-38.547630 146.167313 448.000031
-36.145599 146.150864 448.000000
-33.721638 146.364731 448.000000
-31.368963 146.257797 448.000000
-29.016293 146.257782 448.000000
-26.837893 146.301346 448.000000
-23.134609 145.081467 448.000000
-18.037151 147.042023 448.000000
-16.397411 146.364731 448.000000
-13.723920 146.257797 448.000000
-11.203200 146.761948 448.000031
-68.591019 149.485703 448.666687
-66.875053 149.449295 448.399994
-58.555107 148.549194 449.000000
-56.176025 148.493759 448.833344
-53.839256 148.549194 449.000000
-48.507233 149.448059 448.750000
-46.341164 148.842041 448.700012
-44.014576 148.549194 449.000000
-41.255936 148.521637 448.916687
-38.600803 149.147537 448.200012
-36.124195 148.817673 448.625000
-33.633232 148.946121 448.125000
-31.368961 149.002579 448.000000
-29.016291 149.002579 448.000000
-26.271505 149.002594 448.000000
-23.788132 149.525391 448.000000
-18.037151 149.002579 448.000000
-16.468704 149.002579 448.000000
-13.723921 149.002594 448.000000
-10.979136 149.002579 448.000000
-8.626465 149.100601 448.000000
-6.744327 149.159424 448.000000
-68.696625 150.346069 448.500000
-58.555103 150.121140 449.000000
-56.197174 150.383133 449.000000
-50.302372 150.121140 449.000000
-48.900223 150.430099 448.750000
-45.586521 150.121140 449.000000
-44.014572 150.121140 449.000000
-42.442627 150.121140 449.000000
-37.726780 150.907120 449.000000
-35.997635 150.592728 449.000000
-33.975014 150.626602 448.750000
-31.761074 150.571014 448.000000
-29.016289 150.571014 448.000000
-26.271505 150.571014 448.000000
-23.526722 150.571014 448.000000
-18.037151 150.571014 448.000000
-16.076593 150.571014 448.000000
-13.462513 150.832428 448.000000
-10.979136 150.963135 448.000000
-8.626465 150.884720 448.000000
-6.430637 151.041550 448.000000
-4.705344 152.139465 448.000000
3.956130 -18.198198 452.000000
8.307874 -18.593811 452.000000
11.464317 -18.974836 451.666687
13.220777 -18.983173 451.857178
16.389685 -18.763361 452.000031
18.989426 -18.198200 452.000000
34.220528 -18.396004 452.000000
36.509430 -18.763361 452.000031
37.978851 -18.198198 452.000000
7.912261 -17.406973 452.000000
11.077166 -16.220135 452.000000
13.450842 -16.220135 452.000000
16.220135 -16.220135 452.000000
18.985779 -16.217363 451.916687
21.417847 -16.099985 451.636383
23.555313 -15.908739 451.888885
26.110456 -15.692650 452.000000
27.692911 -17.406973 452.000000
38.770081 -15.428908 452.000000
41.143753 -15.692650 452.000000
43.121819 -16.615747 452.000000
-10.602428 -13.292597 452.000000
9.296906 -13.253036 452.000000
11.077164 -13.450841 452.000000
13.450841 -13.450841 452.000000
16.220135 -13.450843 452.000000
18.970169 -13.437810 451.555573
21.315842 -13.421083 451.000000
23.707994 -13.434699 451.444458
26.091394 -13.441312 451.666656
28.484138 -13.450841 452.000000
31.253429 -13.450842 452.000000
34.220528 -12.857422 452.000000
36.528271 -13.187099 452.000000
38.770077 -13.450842 452.000000
41.143757 -13.450842 452.000000
-10.285938 -10.285938 452.000000
-0.791226 -10.285938 452.000000
1.582452 -10.483745 452.000000
3.956130 -10.285938 452.000000
6.482802 -10.751571 451.600006
8.698818 -11.071914 451.777771
11.066856 -11.066467 451.555573
13.450841 -11.077166 452.000000
16.220135 -11.077164 452.000000
18.947412 -11.052658 451.000000
21.315842 -11.052658 451.000000
23.690294 -11.055575 451.111115
26.065916 -11.058299 451.222229
28.449127 -11.064134 451.444458
31.207333 -11.061411 451.333344
33.980900 -11.064134 451.444458
36.369556 -11.069579 451.666656
38.760742 -11.074636 451.888885
41.143753 -11.077165 452.000000
43.253689 -10.945293 452.000000
-27.692911 -7.912261 452.000000
-26.506069 -7.912261 452.000000
-16.022327 -8.110067 452.000000
-13.134351 -8.386996 452.000000
-11.472777 -7.912261 452.000000
-0.791226 -8.703486 452.000000
1.186839 -8.703485 452.000000
3.956130 -8.703486 452.000000
6.321055 -8.690649 451.333344
8.698819 -8.699207 451.777771
11.042155 -8.676061 450.555573
13.424584 -8.686564 451.111115
16.208755 -8.697361 451.666687
18.956358 -8.688704 451.222229
21.315840 -8.684232 451.000000
23.684265 -8.684231 451.000000
26.072533 -8.690650 451.333344
28.434929 -8.688121 451.222229
31.184286 -8.684232 451.000000
33.939281 -8.682286 450.888885
36.315876 -8.684232 451.000000
38.703556 -8.688899 451.222229
41.123917 -8.699402 451.777771
43.121822 -8.703487 452.000000
-28.220394 -6.066066 452.000000
-26.506071 -6.329808 452.000000
-18.672934 -6.013318 452.000000
-16.220135 -6.329809 452.000000
-13.450841 -6.329808 452.000000
-11.077164 -6.329808 452.000000
-8.816520 -6.103744 452.000031
-6.327474 -5.932153 451.833344
-3.956131 -5.934196 452.000000
-1.450581 -6.066066 452.000000
1.186839 -6.329808 452.000000
3.951073 -6.322611 451.444458
6.317555 -6.317555 451.111115
8.675479 -6.310164 450.555573
11.028150 -6.301800 450.000000
13.411748 -6.311136 450.666656
16.184248 -6.315804 451.000000
18.932825 -6.311137 450.666656
21.305727 -6.312887 450.777771
23.684265 -6.315804 451.000000
26.065916 -6.319110 451.222229
28.434734 -6.319111 451.222229
31.166340 -6.312303 450.750000
33.897850 -6.306468 450.333344
36.315872 -6.315804 451.000000
38.684299 -6.315804 451.000000
41.113995 -6.325140 451.666656
43.291367 -6.216776 452.000031
-30.857813 -3.164904 452.000000
-28.258074 -3.843098 452.000031
-26.901684 -3.956130 452.000000
-21.363104 -3.164904 452.000000
-18.989426 -3.956131 452.000000
-16.220135 -3.956131 452.000000
-13.450842 -3.956131 452.000000
-11.077166 -3.956131 452.000000
-8.699403 -3.954574 451.777771
-6.314248 -3.946600 450.888885
-3.950684 -3.951462 451.444458
-1.582452 -3.956130 452.000000
1.186839 -3.956131 452.000000
3.948934 -3.949128 451.222229
6.315804 -3.947377 451.000000
8.677812 -3.943877 450.666656
11.039237 -3.941931 450.444458
13.431392 -3.949906 451.333344
16.198982 -3.950733 451.416687
18.947412 -3.947377 451.000000
21.315840 -3.947377 451.000000
23.684265 -3.947377 451.000000
26.046467 -3.946599 450.888885
28.559580 -3.866329 450.700012
31.241013 -4.012942 450.272736
33.897659 -3.941932 450.333344
36.280281 -3.944071 450.555573
38.684299 -3.947377 451.000000
41.103878 -3.952435 451.555573
43.517429 -3.956130 452.000000
-33.627106 -1.582452 452.000000
-30.989685 -1.846194 452.000000
-28.642384 -1.898942 452.000000
-23.736780 -1.582452 452.000000
-21.363104 -1.978065 452.000000
-18.989426 -1.978065 452.000000
-13.450842 -1.978065 452.000000
-11.077164 -1.978065 452.000000
-8.577452 -1.805766 451.285736
-6.315804 -1.578951 451.000000
-3.948934 -1.579924 451.222229
-1.582452 -1.582452 452.000000
1.186839 -1.582452 452.000000
3.947377 -1.578951 451.000000
6.307441 -1.577201 450.444458
8.664975 -1.575450 450.000000
11.039625 -1.576812 450.444458
13.431585 -1.580118 451.333344
16.192564 -1.579826 451.250000
18.942745 -1.578562 450.888885
21.310396 -1.578756 450.888885
23.649450 -1.577006 450.333344
26.026821 -1.577979 450.555573
28.736013 -1.577590 450.444458
31.518503 -1.913797 450.142883
33.880543 -1.575839 450.111115
36.235348 -1.575450 450.000000
38.627117 -1.577201 450.333344
41.052731 -1.578951 451.000000
43.496426 -1.581869 451.777771
-7.894755 -0.000000 451.000000
-6.315804 -0.000000 451.000000
-3.947378 -0.000000 451.000000
-1.580118 -0.000000 451.333344
1.186839 -0.000000 451.750000
3.949712 -0.000000 451.333344
6.310553 -0.000000 450.666687
8.678396 -0.000000 450.666687
11.028151 -0.000000 450.000000
13.888118 0.315440 450.800018
16.494820 0.984948 450.500000
18.837448 1.145782 450.090912
21.284040 0.393863 450.333344
23.631752 0.393863 450.000000
25.837378 0.315090 450.000000
28.620678 0.262575 450.000000
33.714634 0.315090 450.000000
36.392895 0.472635 450.000000
38.598526 0.393863 450.000000
41.022972 0.394446 450.666687
-37.978851 3.956131 452.000000
-36.396397 3.956131 452.000000
-34.022720 3.956131 452.000000
-8.684231 4.342115 451.000000
-6.315804 4.342115 451.000000
-3.947378 4.342115 451.000000
-1.579535 4.343575 451.166687
1.184213 4.342115 451.000000
3.947378 4.342116 451.000000
6.313179 4.340657 450.833344
8.664976 4.332488 450.000000
16.936089 3.938625 450.000000
18.680336 4.051158 450.000031
21.662437 4.726350 450.000000
23.631750 4.726350 450.000000
26.014181 4.729852 450.333344
28.751961 4.726350 450.000000
37.023075 4.726350 450.000000
38.598526 4.726350 450.000000
41.052727 4.736854 451.000000
-40.880013 6.857292 452.000000
-38.657043 6.555872 452.000031
-36.396400 6.804543 452.000000
-33.627106 6.329808 452.000000
-31.253429 6.329808 452.000000
-28.484138 6.329808 452.000000
-26.085173 6.323195 451.555573
-23.684265 6.315804 451.000000
-21.315842 6.315804 451.000000
-18.947412 6.315804 451.000000
-16.559151 6.307830 450.444458
-13.795254 6.306760 450.333344
-11.047017 6.312692 450.777771
-8.684232 6.315804 451.000000
-6.315804 6.315804 451.000000
-3.947377 6.315804 451.000000
-1.578368 6.311136 450.666656
1.182463 6.304864 450.250000
3.946405 6.314053 450.888885
6.315804 6.315804 451.000000
8.672951 6.307829 450.444458
11.028150 6.301801 450.000000
16.936089 7.089525 450.000000
18.905401 7.089525 450.000000
22.056301 5.514075 450.000000
24.025612 5.514075 450.000000
26.011431 6.080487 450.285736
28.751963 5.907938 450.000000
38.861099 6.039226 450.000000
41.022968 6.311137 450.666656
43.023796 6.485252 451.800018
-40.748138 8.703487 452.000000
-38.770081 8.703486 452.000000
-36.396397 8.703486 452.000000
-34.022720 8.703487 452.000000
-31.253429 8.703486 452.000000
-28.484138 8.703487 452.000000
-26.072531 8.690650 451.333344
-23.684265 8.684232 451.000000
-21.315840 8.684231 451.000000
-18.947802 8.683843 451.000000
-16.403061 8.595305 450.500000
-13.696389 8.748680 450.636383
-11.047017 8.679952 450.777771
-8.684231 8.684232 451.000000
-6.315804 8.684232 451.000000
-3.947377 8.684231 451.000000
-1.578368 8.677813 450.666656
1.182463 8.668330 450.166687
3.947378 8.684232 451.000000
6.322028 8.693178 451.444458
8.677424 8.678202 450.666656
11.039821 8.806183 450.500000
14.004002 8.577451 450.000000
16.546118 8.667310 450.111115
18.905399 8.664975 450.000000
20.874712 8.271112 450.000000
25.994925 7.877250 450.000000
39.386250 8.664975 450.000000
41.129093 8.580952 450.750000
42.631683 8.684231 451.000000
-41.133835 11.074246 451.888885
-38.731762 11.065687 451.555573
-36.396397 11.077164 452.000000
-34.022720 11.077164 452.000000
-31.247742 11.074977 451.916687
-28.484138 11.077164 452.000000
-26.065916 11.057909 451.222229
-23.684265 11.052658 451.000000
-21.305532 11.047213 450.777771
